468 469 469 469 470 470 470 470 470 470 470 470 470 470 470 470 470 470 470 470 471 471 471 471 472 472 472 472 473 473 473 473 473 473 474 474 474 474 474 475 475 475 475 476 476 476 477 477 477 477 477 478 478 478 478 478 479 479 479 479 480 480 481 481 481 482 482 482 483 483 484 484 484 485 485 485 486 486 486 486 486 486 487 487 487 487 487 487 488 488 488 488 489 489 489 490 490 490 491 491 491 492 492 492 493 493 493 494 494 494 494 494 494 494 494 494 494 495 495 495 496 496 496 496 497 497 497 497 498 0 0 0 0 0 6119 6119 6307 6307 6945 7447 7447 7726 7824 7824 7824 7824 7824 7824 7824 7726 7726 7726 7630 7630 7630 7537 7537 7537 7537 7447 7447 7447 7447 7358 7358 7358 7358 7447 7447 7447 7447 7447 7447 7447 7447 7447 7447 7447 7447 7447 7447 7447 7447 7447 7447 7447 7447 7358 7358 7358 7358 7358 7358 7271 7271 7271 7271 7271 7187 7187 7187 7187 7187 7187 7187 7271 7271 7271 7358 7358 7447 7447 7447 7447 7447 7447 7447 7447 7358 7358 7271 7187 7187 7187 7187 7104 7104 7104 7023 7023 7023 7023 7023 7023 6945 6945 6945 6945 6945 6945 6945 6945 6945 6945 6867 6867 6945 6945 6945 6945 6945 6945 6945 6945 7023 7023 7104 7104 7104 7187 7271 7271 7271 7271 7271 7358 7358 7358 7447 7447 7447 7447 7447 7447 7447 7358 7358 7271 7271 7358 7358 7537 7924 7924 8705 9969 9969 13436 13436 13436 16265 19938 21313 21313 22074 22074 21313 21313 21313 20602 20602 20602 20602 20602 19938 19938 19938 19938 19938 19938 20602 21313 21313 22074 0 0 0 0 0 0 0 29432 29432 29432 0 0 0 0 0 0 0 0 0 0 0 0 0 0 0 0 17659 17659 17659 17168 17168 17168 17168 17168 17659 17659 17659 18178 18729 18729 18729 19314 19314 19314 19314 19938 19938 19938 19938 19938 19314 18178 18178 17168 17168 16265 15452 15452 14716 14047 14047 13436 13436 12876 12361 12361 12119 12119 12119 12119 12119 12119 12119 12119 12119 11886 11886 11886 11886 11886 11662 11662 11446 11238 11238 11037 10476 10476 9969 9969 9657 9225 9225 8957 8705 8705 8584 8584 8352 8241 8241 8132 8027 8027 7924 7824 7824 7824 0 0 0 0 0 0 0 0 0 0 0 0 0 0 0 0 0 0 0 0 0 0 0 0 0 0 0 0 0 0 0 0 0 0 0 0 0 0 0 0 0 0 0 0 0 0 0 0 0 0 0 0 0 0 0 0 0 0 0 0 0 0 0 0 0 0 0 0 0 0 0 0 0 0 0 0 0 0 0 0 0 0 0 0 0 0 0 0 0 0 0 0 0 0 0 0 0 0 0 0 0 0 0 0 0 0 0 0 0 0 0 0 0 0 0 0 0 0 0 0 0 0 0 0 0 0 0 0 0 0 0 0 0 0 0 0 0 0 0 0 0 0 0 0 0 0 0 0 0 0 0 0 0 0 0 0 0 0 0 0 0 0 0 0 0 0 0 0 0 0 0 0 0 0 0 0 0 0 0 0 0 0 0 0 0 0 0 0 0 0 0 0 0 0 209 209 209 209 209 209 209 209 209 209 209 209 209 209 209 209 209 209 209 209 209 209 209 209
469 469 470 470 470 470 470 470 470 470 470 470 470 470 470 470 470 470 471 471 471 471 471 471 472 472 472 472 473 473 473 473 474 474 474 474 474 475 475 475 475 475 476 476 476 477 477 477 477 477 477 478 478 478 478 478 479 479 479 480 480 480 481 481 482 482 482 483 484 484 484 485 485 486 486 486 486 486 486 487 487 487 487 487 487 488 488 488 488 488 489 489 489 489 489 490 491 491 491 492 492 492 493 493 493 493 494 494 494 494 494 494 494 495 495 495 495 495 496 496 496 497 497 497 498 498 498 499 499 0 0 0 0 0 0 0 0 6945 6945 7447 7447 7726 7824 7824 7824 7824 7824 7824 7824 7824 7824 7726 7726 7726 7630 7537 7537 7537 7537 7447 7447 7447 7447 7358 7358 7358 7358 7447 7447 7447 7447 7447 7447 7447 7537 7537 7537 7537 7537 7537 7537 7537 7537 7537 7537 7447 7447 7447 7447 7447 7447 7447 7358 7358 7358 7271 7271 7271 7187 7187 7187 7187 7187 7187 7187 7271 7271 7271 7358 7358 7447 7447 7447 7447 7447 7447 7447 7358 7358 7358 7271 7187 7187 7104 7104 7104 7023 7023 7023 7023 7023 7023 7023 6945 6945 6945 6945 6945 6945 6945 6945 6945 6945 6945 6867 6867 6945 6945 6945 6945 6945 6945 6945 6945 6945 6945 7023 7023 7023 7023 7023 7023 7023 7104 7104 7104 7104 7104 7104 7104 7104 7104 7104 7104 7104 7104 7104 7104 7104 7187 7187 7271 7630 7630 8352 9509 9509 13436 13436 13436 15452 19314 20602 20602 21313 21313 21313 21313 20602 20602 20602 19938 19938 19938 19314 19314 19314 19314 19938 19938 19938 20602 20602 21313 0 0 0 0 0 0 0 29432 29432 29432 0 0 0 0 0 0 0 0 0 0 0 0 0 0 0 18178 17659 17659 17659 17168 17168 17168 17168 17168 17659 17659 17659 18178 18729 18729 19314 19938 19938 19938 20602 20602 20602 20602 20602 20602 19938 19314 19314 18178 18178 17168 15848 15848 15075 14047 14047 13436 13436 12876 12361 12361 12119 12119 12119 12119 12119 12119 12119 12119 12119 11886 11886 11886 11886 11886 11662 11662 11446 11238 11238 11037 10476 10476 9969 9969 9657 9225 9225 8957 8705 8705 8584 8584 8352 8241 8241 8132 8027 8027 7924 7824 7824 7824 0 0 0 0 0 0 0 0 0 0 0 0 0 0 0 0 0 0 0 0 0 0 0 0 0 0 0 0 0 0 0 0 0 0 0 0 0 0 0 0 0 0 0 0 0 0 0 0 0 0 0 0 0 0 0 0 0 0 0 0 0 0 0 0 0 0 0 0 0 0 0 0 0 0 0 0 0 0 0 0 0 0 0 0 0 0 0 0 0 0 0 0 0 0 0 0 0 0 0 0 0 0 0 0 0 0 0 0 0 0 0 0 0 0 0 0 0 0 0 0 0 0 0 0 0 0 0 0 0 0 0 0 0 0 0 0 0 0 0 0 0 0 0 0 0 0 0 0 0 0 0 0 0 0 0 0 0 0 0 0 0 0 0 0 0 0 0 0 0 0 0 0 0 0 0 0 0 0 0 0 0 0 0 0 0 0 0 0 0 0 0 0 0 0 209 209 209 209 209 209 209 209 209 209 209 209 209 209 209 209 209 209 209 209 209 209 209 209
469 469 470 470 470 470 470 470 470 470 470 470 470 470 470 470 470 470 471 471 471 471 471 471 472 472 472 472 473 473 473 473 474 474 474 474 474 475 475 475 475 475 476 476 476 477 477 477 477 477 477 478 478 478 478 478 478 479 479 480 480 480 481 481 482 482 482 483 484 484 484 485 485 486 486 486 486 486 486 487 487 487 487 487 487 488 488 488 488 488 489 489 489 489 489 490 491 491 491 492 492 492 493 493 493 493 494 494 494 494 494 494 494 495 495 495 495 495 496 496 496 497 497 497 498 498 498 499 499 0 0 0 0 0 0 0 0 6945 6945 7447 7447 7726 7824 7824 7824 7824 7824 7824 7824 7824 7824 7726 7726 7726 7630 7630 7630 7537 7537 7447 7447 7447 7447 7447 7447 7447 7447 7447 7447 7447 7447 7447 7537 7537 7537 7537 7537 7537 7537 7537 7537 7537 7537 7537 7537 7537 7537 7447 7447 7447 7447 7447 7447 7358 7358 7358 7271 7271 7271 7187 7187 7187 7187 7187 7271 7271 7271 7271 7358 7358 7447 7447 7447 7447 7447 7447 7447 7358 7358 7358 7271 7271 7187 7104 7104 7104 7023 7023 7023 7023 7023 7023 7023 6945 6945 6945 6945 6945 6945 6945 6945 6945 6945 6945 6945 6945 6945 6945 6945 6945 6945 6945 6945 6945 6945 6945 6945 6945 6945 6945 6945 6945 6945 6945 6945 7023 7023 7023 7023 7023 7023 7023 7023 7023 7023 7023 7023 7023 7023 7023 7023 7104 7358 7358 8027 9509 9509 0 14716 14716 14716 18178 18178 19938 20602 20602 20602 20602 20602 19938 19938 19314 19314 19314 19314 19314 19314 19314 19938 19938 19938 20602 20602 21313 0 22891 22891 22891 24723 0 28094 28094 0 0 0 0 0 0 0 0 0 0 0 0 22074 21313 21313 19938 19938 18178 17659 17659 17659 17168 17168 17168 17168 17168 17659 18178 18178 18178 18729 18729 19314 19938 19938 19938 20602 20602 20602 20602 20602 20602 19938 19314 19314 18178 18178 17168 15848 15848 15075 14047 14047 13436 13436 12876 12361 12361 12119 12119 12119 11886 11886 11886 11886 11886 11886 11886 11886 11886 11662 11662 11446 11446 11238 11037 11037 10656 10132 10132 9657 9657 9225 8829 8829 8584 8352 8352 8132 8132 8027 7924 7924 7824 7726 7726 7537 7537 7447 7447 0 0 0 0 0 0 0 0 0 0 0 0 0 0 0 0 0 0 0 0 0 0 0 0 0 0 0 0 0 0 0 0 0 0 0 0 0 0 0 0 0 0 0 0 0 0 0 0 0 0 0 0 0 0 0 0 0 0 0 0 0 0 0 0 0 0 0 0 0 0 0 0 0 0 0 0 0 0 0 0 0 0 0 0 0 0 0 0 0 0 0 0 0 0 0 0 0 0 0 0 0 0 0 0 0 0 0 0 0 0 0 0 0 0 0 0 0 0 0 0 0 0 0 0 0 0 0 0 0 0 0 0 0 0 0 0 0 0 0 0 0 0 0 0 0 0 0 0 0 0 0 0 0 0 0 0 0 0 0 0 0 0 0 0 0 0 0 0 0 0 0 0 0 0 0 0 0 0 0 0 0 0 0 0 0 0 0 0 0 0 0 0 0 0 209 209 209 209 209 209 209 209 209 209 209 209 209 209 209 209 209 209 209 209 209 209 209 209
469 470 470 470 471 471 471 471 471 471 471 471 471 471 471 471 471 471 471 471 471 471 471 472 472 472 472 472 473 473 473 474 474 474 474 475 475 475 475 475 476 476 476 476 476 477 477 477 477 477 477 478 478 478 478 478 478 479 479 480 480 480 481 481 482 483 483 484 484 484 485 486 486 486 487 487 487 487 487 487 487 488 488 488 488 489 489 489 489 489 489 489 489 490 490 491 491 491 492 492 492 493 494 494 494 494 494 495 495 495 495 495 496 496 496 496 496 496 496 496 497 498 498 498 498 498 500 500 500 0 0 0 0 0 0 6243 6243 6243 6945 7447 7447 7726 7726 7726 7726 7824 7824 7824 7824 7824 7824 7726 7726 7726 7630 7630 7630 7537 7537 7447 7447 7447 7447 7447 7447 7447 7447 7447 7447 7447 7447 7447 7537 7537 7537 7537 7537 7537 7537 7537 7537 7537 7537 7537 7537 7537 7537 7447 7447 7447 7447 7447 7447 7358 7358 7358 7271 7271 7271 7187 7187 7187 7187 7187 7271 7271 7271 7271 7358 7358 7447 7447 7447 7447 7447 7447 7447 7358 7358 7358 7271 7271 7187 7104 7104 7023 7023 7023 7023 6945 6945 6945 6945 6945 6945 6945 6945 6945 6945 6945 6945 6945 6945 6945 6945 6945 6945 6945 6945 6945 6945 6945 6945 6945 6945 6945 6945 6945 6945 6945 6945 6945 6945 6945 6945 7023 7023 7023 7023 7023 7023 7023 7023 7023 7023 7023 7023 7023 7023 7023 7023 7104 7358 7358 8027 0 0 0 14716 14716 14716 18178 18178 19938 20602 20602 20602 20602 20602 19938 19938 19314 19314 19314 19314 19314 19314 19314 19938 19938 19938 20602 20602 21313 0 22891 22891 22891 24723 0 28094 28094 0 0 0 0 0 0 0 0 0 0 0 0 22074 21313 21313 19938 19938 19938 0 0 0 0 0 0 0 0 0 0 18729 18729 19314 19314 19938 20602 20602 20602 21313 21313 21313 21313 21313 21313 20602 19314 19314 18729 18729 17168 15848 15848 15075 14374 14374 13436 13436 12876 12361 12361 12119 12119 12119 11886 11886 11886 11886 11886 11886 11886 11886 11662 11446 11446 11238 11238 11037 10656 10656 10132 9657 9657 9225 9225 8829 8467 8467 8132 7924 7924 7824 7824 7726 7630 7630 7537 7447 7447 7271 7271 7187 7104 7104 7104 0 0 0 0 0 0 0 0 0 0 0 0 0 0 0 0 0 0 0 0 0 0 0 0 0 0 0 0 0 0 0 0 0 0 0 0 0 0 0 0 0 0 0 0 0 0 0 0 0 0 0 0 0 0 0 0 0 0 0 0 0 0 0 0 0 0 0 0 0 0 0 0 0 0 0 0 0 0 0 0 0 0 0 0 0 0 0 0 0 0 0 0 0 0 0 0 0 0 0 0 0 0 0 0 0 0 0 0 0 0 0 0 0 0 0 0 0 0 0 0 0 0 0 0 0 0 0 0 0 0 0 0 0 0 0 0 0 0 0 0 0 0 0 0 0 0 0 0 0 0 0 0 0 0 0 0 0 0 0 0 0 0 0 0 0 0 0 0 0 0 0 0 0 0 0 0 0 0 0 0 0 0 0 0 0 0 0 0 0 0 0 0 0 209 209 209 209 209 209 209 209 209 209 209 209 209 209 209 209 209 209 209 209 209 209 209
469 470 470 470 471 471 471 471 471 471 471 471 471 471 471 471 471 471 471 471 471 472 472 472 473 473 473 473 473 474 474 474 474 474 475 475 475 475 475 476 476 476 477 477 477 477 477 477 477 477 477 478 478 478 478 478 479 479 479 480 480 480 481 481 482 483 483 484 485 485 486 486 486 487 487 487 488 488 488 488 488 489 489 489 489 489 489 489 490 490 490 490 491 491 491 491 492 492 492 493 493 494 494 494 494 494 495 495 495 496 496 496 496 496 496 497 497 497 497 497 498 498 498 499 500 500 500 501 501 0 0 0 0 0 0 6243 6243 6243 6867 7358 7358 7630 7726 7726 7726 7824 7824 7824 7824 7824 7824 7726 7726 7726 7630 7630 7630 7537 7537 7537 7537 7537 7447 7447 7447 7447 7447 7447 7447 7447 7447 7447 7537 7537 7537 7537 7537 7630 7630 7630 7630 7630 7630 7630 7630 7537 7537 7537 7537 7537 7537 7537 7447 7358 7358 7358 7358 7358 7271 7271 7271 7271 7271 7271 7271 7271 7271 7271 7358 7358 7447 7447 7447 7447 7447 7447 7447 7358 7358 7358 7271 7271 7187 7104 7104 7023 7023 7023 6945 6945 6945 6945 6945 6945 6945 6945 6945 6945 6945 6945 6945 6945 6945 6945 6945 6945 6945 6945 6945 6945 6945 6867 6867 6867 6867 6867 6867 6867 6867 6867 6945 6945 6945 6945 6945 6945 6945 7023 7023 7023 7023 7023 7023 7023 7023 7023 7023 6945 6945 6945 6945 7023 7187 7187 7924 0 0 0 14716 14047 14047 17659 17659 19938 20602 20602 20602 20602 20602 19938 19938 19314 19314 19314 19314 19314 19314 19314 19938 19938 19938 20602 20602 21313 22074 22074 22891 22891 24723 26872 26872 28094 0 0 0 0 0 0 0 0 0 0 0 0 22074 21313 21313 19938 19938 19938 19938 0 0 0 0 0 0 0 0 0 18729 18729 19314 19314 19938 20602 20602 20602 21313 21313 21313 21313 21313 21313 20602 19314 19314 18729 18729 17168 15848 15848 15075 14374 14374 13436 13436 12876 12361 12361 12119 11886 11886 11886 11886 11886 11886 11886 11886 11662 11662 11662 11446 11446 11238 11238 11037 10656 10656 10132 9657 9657 9225 9225 8829 8467 8467 8132 7924 7924 7824 7824 7726 7630 7630 7537 7447 7447 7271 7271 7187 7104 7104 7104 0 0 0 0 0 0 0 0 0 0 0 0 0 0 0 0 0 0 0 0 0 0 0 0 0 0 0 0 0 0 0 0 0 0 0 0 0 0 0 0 0 0 0 0 0 0 0 0 0 0 0 0 0 0 0 0 0 0 0 0 0 0 0 0 0 0 0 0 0 0 0 0 0 0 0 0 0 0 0 0 0 0 0 0 0 0 0 0 0 0 0 0 0 0 0 0 0 0 0 0 0 0 0 0 0 0 0 0 0 0 0 0 0 0 0 0 0 0 0 0 0 0 0 0 0 0 0 0 0 0 0 0 0 0 0 0 0 0 0 0 0 0 0 0 0 0 0 0 0 0 0 0 0 0 0 0 0 0 0 0 0 0 0 0 0 0 0 0 0 0 0 0 0 0 0 0 0 0 0 0 0 0 0 0 0 0 0 0 0 0 0 0 0 209 209 209 209 209 209 209 209 209 209 209 209 209 209 209 209 209 209 209 209 209 209 209
469 470 471 471 471 471 471 471 471 471 471 471 471 471 471 471 471 471 471 471 471 472 472 472 473 473 473 473 473 474 474 474 474 474 475 475 475 475 475 476 476 476 477 477 477 477 477 477 477 477 477 478 478 478 478 478 478 479 479 479 480 480 481 481 482 483 483 484 485 485 486 486 486 487 487 487 488 488 488 488 488 489 489 489 489 489 489 489 490 490 490 490 491 491 491 491 492 492 492 493 493 494 494 494 494 494 495 495 495 496 496 496 496 496 496 497 497 497 497 497 498 498 498 499 500 500 500 501 501 503 504 504 505 505 0 6307 6307 6307 6867 7358 7358 7630 7726 7726 7726 7824 7824 7824 7824 7824 7824 7726 7726 7726 7726 7630 7630 7630 7630 7537 7537 7537 7447 7447 7447 7447 7447 7447 7447 7447 7447 7537 7537 7537 7537 7630 7630 7630 7630 7630 7630 7630 7630 7630 7630 7537 7537 7537 7537 7537 7537 7537 7447 7447 7447 7358 7358 7358 7271 7271 7271 7271 7271 7271 7271 7271 7271 7358 7447 7447 7447 7447 7447 7447 7447 7447 7447 7447 7358 7358 7271 7271 7187 7104 7104 7023 7023 7023 6945 6945 6945 6945 6945 6945 6945 6945 6945 6945 6945 6945 6945 6945 6945 6945 6945 6945 6945 6945 6945 6945 6945 6867 6867 6867 6867 6867 6867 6867 6867 6867 6945 6945 6945 6945 6945 6945 6945 7023 7023 7023 7023 7023 7023 7023 7023 7023 7023 6867 6867 6945 6945 6945 7023 7023 7726 0 0 0 0 13436 13436 16704 16704 19314 19938 19938 20602 20602 20602 20602 20602 19938 19938 19938 19314 19314 19314 19314 19938 19938 19938 20602 20602 21313 22074 22074 23772 23772 24723 25753 25753 26872 0 0 0 0 0 0 0 0 0 24723 24723 24723 23772 22074 22074 21313 21313 19938 19314 19314 19314 0 0 0 0 0 17659 17659 17659 18178 18729 18729 19938 19938 19938 20602 20602 21313 21313 21313 21313 21313 20602 19938 19938 18729 18729 17168 15848 15848 15075 14374 14374 13436 13436 12876 12361 12361 12119 11886 11886 11662 11662 11662 11662 11662 11446 11446 11446 11238 11037 11037 10843 10843 10476 10132 10132 9509 9089 9089 8705 8705 8352 8027 8027 7824 7824 7630 7537 7537 7447 7358 7358 7358 7187 7187 7104 7104 7023 7023 7104 7104 0 0 0 0 0 0 0 0 0 0 0 0 0 0 0 0 0 0 0 0 0 0 0 0 0 0 0 0 0 0 0 0 0 0 0 0 0 0 0 0 0 0 0 0 0 0 0 0 0 0 0 0 0 0 0 0 0 0 0 0 0 0 0 0 0 0 0 0 0 0 0 0 0 0 0 0 0 0 0 0 0 0 0 0 0 0 0 0 0 0 0 0 0 0 0 0 0 0 0 0 0 0 0 0 0 0 0 0 0 0 0 0 0 0 0 0 0 0 0 0 0 0 0 0 0 0 0 0 0 0 0 0 0 0 0 0 0 0 0 0 0 0 0 0 0 0 0 0 0 0 0 0 0 0 0 0 0 0 0 0 0 0 0 0 0 0 0 0 0 0 0 0 0 0 0 0 0 0 0 0 0 0 0 0 0 0 0 0 0 0 0 0 0 209 209 209 209 209 209 209 209 209 209 209 209 209 209 209 209 209 209 209 209 209 209 209
470 470 471 471 471 471 471 471 471 471 471 471 471 471 471 471 471 471 471 471 472 472 472 473 473 473 473 473 474 474 474 474 475 475 475 475 475 476 476 476 476 476 477 477 477 477 477 477 478 478 478 478 478 478 478 478 478 479 479 479 480 480 481 481 482 483 483 484 486 486 486 487 487 488 488 488 489 489 489 489 489 489 489 489 490 490 490 490 491 491 491 491 491 492 492 492 493 493 493 494 494 494 494 494 495 495 496 496 496 496 496 496 497 497 497 497 497 498 498 498 499 500 500 500 500 500 501 502 502 503 504 504 505 505 5943 5943 6181 6181 6792 7358 7358 7537 7630 7630 7726 7726 7726 7726 7726 7726 7726 7726 7726 7726 7726 7630 7630 7630 7630 7537 7537 7537 7447 7447 7447 7447 7447 7447 7447 7447 7447 7537 7537 7537 7537 7537 7537 7630 7630 7630 7630 7630 7630 7630 7630 7537 7537 7537 7447 7447 7447 7447 7447 7447 7447 7358 7271 7271 7271 7271 7271 7271 7271 7271 7271 7271 7271 7358 7447 7447 7447 7447 7447 7447 7447 7447 7447 7447 7358 7358 7271 7271 7187 7104 7104 7023 7023 7023 6945 6945 6945 6945 6945 6945 6945 6945 6945 6945 6945 6945 6945 6945 6945 6945 6945 6945 6945 6945 6945 6945 6867 6867 6867 6867 6867 6867 6867 6867 6867 6867 6867 6867 6867 6867 6867 6945 6945 6945 6945 6945 6945 6945 6945 6945 6945 6945 6945 6867 6867 6945 6945 6945 7023 7023 7726 0 0 0 0 13436 13436 16704 16704 19314 19938 19938 20602 20602 20602 20602 20602 19938 19938 19938 19938 19938 19314 19314 19938 19938 20602 21313 21313 22074 22891 22891 23772 23772 25753 25753 25753 26872 0 0 0 0 0 0 0 0 0 24723 24723 24723 23772 23772 23772 22074 22074 20602 19314 19314 19314 0 0 0 0 0 17659 17659 17659 18178 18729 18729 19938 19938 19938 20602 20602 21313 21313 21313 21313 21313 20602 19938 19938 18729 18729 17168 15848 15848 15075 14374 14374 13436 13436 12876 12361 12361 12119 11886 11886 11662 11662 11662 11662 11662 11446 11446 11446 11238 11037 11037 10843 10843 10476 10132 10132 9509 9089 9089 8705 8705 8352 8027 8027 7824 7824 7630 7537 7537 7447 7358 7358 7358 7187 7187 7104 7104 7023 7023 0 0 0 0 0 0 0 0 0 0 0 0 0 0 0 0 0 0 0 0 0 0 0 0 0 0 0 0 0 0 0 0 0 0 0 0 0 0 0 0 0 0 0 0 0 0 0 0 0 0 0 0 0 0 0 0 0 0 0 0 0 0 0 0 0 0 0 0 0 0 0 0 0 0 0 0 0 0 0 0 0 0 0 0 0 0 0 0 0 0 0 0 0 0 0 0 0 0 0 0 0 0 0 0 0 0 0 0 0 0 0 0 0 0 0 0 0 0 0 0 0 0 0 0 0 0 0 0 0 0 0 0 0 0 0 0 0 0 0 0 0 0 0 0 0 0 0 0 0 0 0 0 0 0 0 0 0 0 0 0 0 0 0 0 0 0 0 0 0 0 0 0 0 0 0 0 0 0 0 0 0 0 0 0 0 0 0 0 0 0 0 0 0 0 0 0 0 208 208 208 208 209 209 209 209 209 209 209 209 209 209 209 209 209 209 209 209 209
470 470 471 471 471 471 471 471 471 471 471 471 471 471 471 471 471 471 471 471 472 472 472 473 473 473 473 473 474 474 474 474 475 475 475 475 475 476 476 476 476 476 477 477 477 477 477 477 478 478 478 478 478 478 478 478 478 479 479 480 481 481 482 483 483 484 484 485 486 486 487 487 487 488 489 489 489 489 489 489 489 490 490 490 491 491 491 491 491 491 492 492 492 492 492 493 494 494 494 494 494 495 495 495 496 496 496 496 496 497 497 497 498 498 498 498 499 499 500 500 500 500 500 501 501 501 502 502 502 503 504 504 505 505 5943 5943 6181 6181 6792 7358 7358 7537 7630 7630 7726 7726 7726 7726 7726 7726 7726 7726 7726 7726 7726 7630 7630 7630 7630 7537 7537 7537 7447 7447 7447 7447 7447 7447 7447 7447 7447 7447 7447 7447 7537 7537 7537 7537 7537 7537 7537 7537 7537 7537 7447 7447 7447 7447 7358 7358 7358 7358 7271 7271 7271 7271 7271 7271 7187 7187 7187 7187 7187 7187 7271 7271 7271 7358 7447 7447 7447 7447 7447 7537 7537 7447 7447 7447 7358 7358 7271 7271 7187 7104 7104 7104 7023 7023 6945 6945 6945 6945 6945 6945 6945 6945 6945 6945 6945 6945 6945 6945 6945 6945 6945 6945 6945 6945 6867 6867 6867 6867 6867 6792 6792 6792 6792 6792 6792 6792 6792 6792 6867 6867 6867 6867 6867 6867 6867 6867 6867 6867 6792 6792 6792 6792 6792 6792 6792 6867 6867 6945 6945 6945 7630 8467 8467 0 0 13150 13150 16265 16265 18729 19938 19938 19938 20602 20602 20602 20602 19938 19938 19938 19938 19938 19314 19314 19938 19938 20602 21313 21313 22074 22891 22891 23772 23772 24723 25753 25753 24723 24723 23772 22891 22891 22891 0 0 22891 22891 22074 22074 22074 22074 21313 21313 20602 20602 19314 18178 18178 17168 16265 16265 15848 15848 15848 16265 16265 16265 16704 17659 17659 18729 19314 19314 19938 19938 21313 21313 21313 21313 21313 20602 19938 19938 18729 18729 17168 15848 15848 15075 14374 14374 13436 13436 12876 12361 12361 11886 11886 11886 11662 11662 11446 11446 11446 11238 11238 11238 11037 10843 10843 10656 10656 10301 9811 9811 9365 8957 8957 8705 8705 8132 7824 7824 7630 7630 7447 7271 7271 7187 7187 7187 7187 7104 7104 7104 7104 7023 7023 0 0 0 0 0 0 0 0 0 0 0 0 0 0 0 0 0 0 0 0 0 0 0 0 0 0 0 0 0 0 0 0 0 0 0 0 0 0 0 0 0 0 0 0 0 0 0 0 0 0 0 0 0 0 0 0 0 0 0 0 0 0 0 0 0 0 0 0 0 0 0 0 0 0 0 0 0 0 0 0 0 0 0 0 0 0 0 0 0 0 0 0 0 0 0 0 0 0 0 0 0 0 0 0 0 0 0 0 0 0 0 0 0 0 0 0 0 0 0 0 0 0 0 0 0 0 0 0 0 0 0 0 0 0 0 0 0 0 0 0 0 0 0 0 0 0 0 0 0 0 0 0 0 0 0 0 0 0 0 0 0 0 0 0 0 0 0 0 0 0 0 0 0 0 0 0 0 0 0 0 0 0 0 0 0 0 0 0 0 0 0 0 0 0 0 0 0 208 208 208 208 209 209 209 209 209 209 209 209 209 209 209 209 209 209 209 209 209
470 471 471 471 471 471 471 471 471 472 472 471 471 471 471 471 471 471 472 472 472 473 473 473 474 474 474 474 475 475 475 475 475 475 475 476 476 476 476 477 477 477 477 478 478 478 478 478 478 478 478 478 478 478 478 478 479 479 479 480 481 481 482 483 483 484 484 485 486 486 487 487 487 488 489 489 489 489 489 489 489 490 490 490 491 491 491 491 491 491 492 492 492 492 492 493 494 494 494 494 494 495 495 495 496 496 496 496 496 497 497 497 498 498 498 498 499 499 500 500 500 500 500 501 501 501 502 502 502 503 504 504 505 505 5943 5943 6181 6181 6792 7271 7271 7537 7537 7537 7630 7630 7630 7726 7726 7726 7726 7726 7726 7726 7726 7630 7630 7630 7630 7537 7537 7537 7447 7447 7447 7447 7447 7447 7447 7447 7447 7447 7447 7447 7537 7537 7537 7537 7537 7537 7537 7537 7537 7537 7447 7447 7447 7447 7358 7358 7358 7358 7271 7271 7271 7271 7271 7271 7187 7187 7187 7187 7187 7187 7271 7271 7271 7358 7447 7447 7447 7447 7447 7537 7537 7447 7447 7447 7358 7358 7271 7271 7187 7104 7104 7104 7023 7023 6945 6945 6945 6945 6945 6945 6945 6945 6945 6945 6945 6945 6945 6945 6945 6945 6945 6945 6945 6945 6867 6867 6867 6867 6867 6792 6792 6792 6792 6792 6792 6792 6792 6792 6867 6867 6867 6867 6867 6867 6867 6867 6867 6867 6792 6792 6792 6792 6792 6792 6792 6867 6867 6945 6945 6945 7630 8467 8467 0 0 13150 13150 16265 16265 18729 19938 19938 19938 20602 20602 20602 20602 19938 19938 19938 19938 19938 19938 19938 20602 20602 21313 21313 21313 22891 23772 23772 24723 24723 24723 24723 24723 23772 23772 22891 22074 22074 21313 21313 20602 20602 20602 20602 20602 20602 19938 19938 19938 19314 19314 18178 17168 17168 16265 16265 15452 15452 15848 15075 15075 15452 15452 15848 16704 16704 17659 18729 18729 19314 19314 20602 21313 21313 20602 20602 20602 19314 19314 18729 18729 17168 15848 15848 15075 14047 14047 13436 13436 12614 12119 12119 11886 11662 11662 11446 11446 11238 11238 11238 11037 11037 11037 10843 10656 10656 10476 10476 9969 9657 9657 9089 8957 8584 8241 8241 7924 7630 7630 7358 7358 7187 7187 7187 7104 7023 7023 7023 7023 7104 7104 0 0 0 0 0 0 0 0 0 0 0 0 0 0 0 0 0 0 0 0 0 0 0 0 0 0 0 0 0 0 0 0 0 0 0 0 0 0 0 0 0 0 0 0 0 0 0 0 0 0 0 0 0 0 0 0 0 0 0 0 0 0 0 0 0 0 0 0 0 0 0 0 0 0 0 0 0 0 0 0 0 0 0 0 0 0 0 0 0 0 0 0 0 0 0 0 0 0 0 0 0 0 0 0 0 0 0 0 0 0 0 0 0 0 0 0 0 0 0 0 0 0 0 0 0 0 0 0 0 0 0 0 0 0 0 0 0 0 0 0 0 0 0 0 0 0 0 0 0 0 0 0 0 0 0 0 0 0 0 0 0 0 0 0 0 0 0 0 0 0 0 0 0 0 0 0 0 0 0 0 0 0 0 0 0 0 0 0 0 0 0 0 0 0 0 0 0 0 0 0 208 208 208 208 208 208 208 208 208 208 209 209 209 209 209 209 209 209 209 209 209
470 471 471 471 471 471 472 472 472 472 472 472 472 472 472 472 472 472 473 473 473 473 473 474 474 474 475 475 475 475 475 476 476 476 476 476 476 477 477 477 477 477 477 478 478 478 478 478 478 478 478 479 479 479 479 479 479 479 479 480 481 481 482 483 483 484 484 485 486 486 487 488 488 489 489 489 489 490 490 490 490 490 491 491 491 491 491 492 492 492 492 493 493 493 493 494 494 494 495 495 495 496 496 496 496 496 496 497 497 497 498 498 498 499 499 499 500 500 500 500 501 501 501 501 502 502 502 503 503 503 504 504 505 505 505 6307 6307 6307 6867 7271 7271 7447 7537 7537 7537 7630 7630 7630 7630 7726 7726 7726 7726 7726 7726 7630 7630 7630 7630 7537 7537 7537 7447 7447 7447 7447 7447 7447 7447 7447 7447 7447 7447 7447 7447 7447 7447 7358 7358 7358 7358 7271 7271 7271 7187 7187 7187 7187 7187 7104 7104 7104 7104 7104 7104 7023 7023 7023 7023 7104 7104 7104 7104 7104 7187 7271 7271 7358 7447 7447 7447 7447 7447 7537 7537 7447 7447 7358 7358 7358 7271 7271 7187 7104 7104 7104 7023 7023 6945 6945 6945 6945 6945 6945 6945 6945 6945 6945 6945 6945 6945 6945 6945 6945 6945 6945 6945 6867 6867 6867 6867 6792 6792 6792 6792 6792 6792 6792 6792 6792 6792 6792 6792 6792 6792 6792 6792 6792 6792 6718 6718 6718 6718 6718 6718 6718 6718 6718 6792 6792 6792 6867 6945 6945 7630 8467 8467 0 0 13150 13150 16265 16265 18178 19938 19938 19938 20602 20602 20602 20602 19938 19938 19938 19938 19938 19938 19938 20602 20602 21313 22074 22074 22891 23772 23772 24723 24723 24723 24723 24723 23772 23772 22891 22074 22074 21313 21313 20602 20602 20602 20602 20602 20602 19938 19938 19938 19314 19314 18178 17168 17168 16265 16265 15452 15452 0 15075 15075 15452 15452 15848 16704 16704 17659 18729 18729 19314 19314 20602 21313 21313 20602 20602 20602 19314 19314 18729 18729 17168 15848 15848 15075 14047 14047 13436 13436 12614 12119 12119 11886 11662 11662 11446 11446 11238 11238 11238 11037 11037 11037 10843 10656 10656 10476 10476 9969 9657 9657 9089 9089 8584 8241 8241 7924 7630 7630 7358 7358 7187 7187 7187 7104 7023 7023 7023 7023 0 0 0 0 0 0 0 0 0 0 0 0 0 0 0 0 0 0 0 0 0 0 0 0 0 0 0 0 0 0 0 0 0 0 0 0 0 0 0 0 0 0 0 0 0 0 0 0 0 0 0 0 0 0 0 0 0 0 0 0 0 0 0 0 0 0 0 0 0 0 0 0 0 0 0 0 0 0 0 0 0 0 0 0 0 0 0 0 0 0 0 0 0 0 0 0 0 0 0 0 0 0 0 0 0 0 0 0 0 0 0 0 0 0 0 0 0 0 0 0 0 0 0 0 0 0 0 0 0 0 0 0 0 0 0 0 0 0 0 0 0 0 0 0 0 0 0 0 0 0 0 0 0 0 0 0 0 0 0 0 0 0 0 0 0 0 0 0 0 0 0 0 0 0 0 0 0 0 0 0 0 0 0 0 0 0 0 0 0 0 0 0 0 0 0 0 0 0 0 0 0 0 0 208 208 208 208 208 208 208 208 208 208 208 208 208 208 209 209 209 209 209 209
470 471 471 471 471 471 472 472 472 472 472 472 472 472 472 472 472 472 473 473 473 473 473 474 474 474 475 475 475 475 475 476 476 476 476 476 476 477 477 477 477 477 477 478 478 478 478 478 478 478 478 479 479 479 479 479 479 479 479 480 481 481 482 482 483 484 484 485 486 486 487 488 488 489 489 489 489 490 490 490 490 490 491 491 491 491 491 492 492 492 492 493 493 493 493 494 495 495 495 496 496 496 496 496 496 496 497 497 497 498 498 498 499 499 499 500 500 500 501 501 501 502 502 502 502 502 502 503 503 504 504 504 505 505 505 6575 6575 6575 7023 7358 7358 7447 7537 7537 7537 7630 7630 7630 7630 7726 7726 7726 7726 7726 7726 7630 7630 7630 7630 7537 7537 7537 7447 7447 7447 7447 7447 7447 7447 7447 7447 7447 7447 7447 7447 7447 7447 7358 7358 7358 7358 7271 7271 7271 7187 7187 7187 7187 7187 7104 7104 7104 7104 7104 7104 7023 7023 7023 7023 7104 7104 7023 7023 7023 7104 7187 7187 7358 7447 7447 7447 7447 7447 7537 7537 7447 7447 7358 7358 7358 7271 7271 7187 7104 7104 7104 7023 7023 6945 6945 6945 6945 6945 6945 6945 6945 6945 6945 6945 6945 6945 6945 6945 6945 6945 6867 6867 6867 6867 6867 6792 6792 6792 6792 6792 6792 6718 6718 6718 6718 6718 6718 6718 6718 6718 6718 6718 6718 6718 6718 6646 6646 6646 6646 6646 6646 6646 6646 6718 6792 6792 6867 6945 6945 7630 8467 8467 9811 0 13436 13436 15848 15848 17659 19938 19938 19938 20602 20602 20602 20602 20602 20602 19938 19938 19938 19938 19938 20602 20602 21313 22074 22074 22891 23772 23772 24723 24723 23772 23772 23772 22074 22074 21313 21313 19938 19314 19314 18729 18729 18729 18178 18178 18729 18178 18178 18178 17659 17659 16704 15848 15848 15075 15075 14374 14047 14047 14047 14047 14374 14374 14716 15848 15848 16704 17659 17659 18729 18729 19938 20602 20602 20602 20602 19938 19314 19314 18178 18178 17168 15848 15848 14716 14047 14047 13150 13150 12614 12119 12119 11662 11446 11446 11238 11238 11037 11037 11037 10843 10656 10656 10656 10656 10476 10132 10132 9811 9365 9365 8829 8829 8584 7924 7924 7630 7358 7358 7187 7187 7104 7023 7023 6945 6945 6945 6945 6945 6945 0 0 0 0 0 0 0 0 0 0 0 0 0 0 0 0 0 0 0 0 0 0 0 0 0 0 0 0 0 0 0 0 0 0 0 0 0 0 0 0 0 0 0 0 0 0 0 0 0 0 0 0 0 0 0 0 0 0 0 0 0 0 0 0 0 0 0 0 0 0 0 0 0 0 0 0 0 0 0 0 0 0 0 0 0 0 0 0 0 0 0 0 0 0 0 0 0 0 0 0 0 0 0 0 0 0 0 0 0 0 0 0 0 0 0 0 0 0 0 0 0 0 0 0 0 0 0 0 0 0 0 0 0 0 0 0 0 0 0 0 0 0 0 0 0 0 0 0 0 0 0 0 0 0 0 0 0 0 0 0 0 0 0 0 0 0 0 0 0 0 0 0 0 0 0 0 0 0 0 0 0 0 0 0 0 0 0 0 0 0 0 0 0 0 0 0 0 0 0 0 0 0 0 0 208 208 208 208 208 208 208 208 208 208 208 208 209 209 209 209 209 209
470 471 471 471 471 471 472 472 472 472 472 472 472 472 472 473 473 473 473 473 473 474 474 474 475 475 475 475 476 476 476 476 476 476 477 477 477 477 477 477 478 478 478 478 478 478 479 479 479 479 479 479 479 479 479 479 480 480 480 481 481 481 482 482 483 484 484 485 486 486 487 488 488 489 489 489 489 490 490 490 490 491 491 491 491 492 492 492 493 493 493 494 494 494 494 494 495 495 495 496 496 496 496 496 496 496 497 497 497 498 498 498 499 499 499 500 500 500 501 501 501 502 502 502 502 502 502 503 503 504 504 504 505 505 505 6575 6575 6575 7023 7358 7358 7447 7447 7447 7537 7630 7630 7630 7630 7630 7726 7726 7726 7726 7726 7630 7630 7630 7630 7537 7447 7447 7447 7447 7447 7447 7447 7447 7447 7447 7358 7358 7358 7358 7271 7271 7187 7187 7187 7104 7104 7023 7023 7023 6945 6945 6945 6867 6867 6867 6867 6867 6792 6792 6792 6792 6792 6867 6867 6945 6945 6945 7023 7023 7104 7187 7187 7358 7447 7447 7447 7537 7537 7537 7537 7447 7447 7358 7358 7358 7271 7271 7187 7104 7104 7104 7023 7023 6945 6945 6945 6945 6945 6945 6945 6945 6945 6945 6945 6945 6945 6945 6945 6945 6945 6867 6867 6867 6867 6867 6792 6792 6792 6792 6792 6792 6718 6718 6718 6718 6718 6718 6718 6718 6718 6718 6718 6718 6718 6718 6646 6646 6646 6646 6646 6646 6646 6646 6718 6792 6792 6867 6945 6945 7630 8584 8584 9811 0 13436 13436 15848 15848 17659 19938 19938 19938 20602 20602 20602 20602 20602 20602 20602 20602 20602 20602 20602 21313 21313 22074 22891 22891 22891 23772 23772 24723 24723 23772 23772 23772 22074 22074 21313 21313 19938 19314 19314 18729 18729 18729 18178 18178 18729 18178 18178 18178 17659 17659 16704 15848 15848 15075 15075 14374 14047 14047 14047 14047 14374 14047 14047 14716 14716 15848 15848 16704 18178 18178 18729 19938 19938 20602 20602 19938 18729 18729 18178 18178 16704 15848 15848 14716 14047 14047 13150 13150 12361 11886 11886 11446 11238 11238 11037 11037 10843 10656 10656 10656 10476 10476 10301 10301 10132 9811 9811 9509 9365 9365 8467 8467 8027 7726 7726 7358 7104 7104 7023 7023 6945 6945 7023 6945 6945 6945 6945 6945 6945 0 0 0 0 0 0 0 0 0 0 0 0 0 0 0 0 0 0 0 0 0 0 0 0 0 0 0 0 0 0 0 0 0 0 0 0 0 0 0 0 0 0 0 0 0 0 0 0 0 0 0 0 0 0 0 0 0 0 0 0 0 0 0 0 0 0 0 0 0 0 0 0 0 0 0 0 0 0 0 0 0 0 0 0 0 0 0 0 0 0 0 0 0 0 0 0 0 0 0 0 0 0 0 0 0 0 0 0 0 0 0 0 0 0 0 0 0 0 0 0 0 0 0 0 0 0 0 0 0 0 0 0 0 0 0 0 0 0 0 0 0 0 0 0 0 0 0 0 0 0 0 0 0 0 0 0 0 0 0 0 0 0 0 0 0 0 0 0 0 0 0 0 0 0 0 0 0 0 0 0 0 0 0 0 0 0 0 0 0 0 0 0 0 0 0 0 0 0 0 0 0 0 0 0 208 208 208 208 208 208 208 208 208 208 208 208 209 209 209 209 209 209
470 471 471 471 471 471 472 472 472 473 473 473 473 473 473 473 473 473 474 474 474 475 475 475 475 475 476 477 477 477 477 477 477 477 477 477 477 477 478 478 478 478 478 479 479 479 479 479 479 480 480 480 480 480 480 480 480 481 481 481 482 482 482 482 483 484 484 485 486 486 487 488 488 489 489 489 489 490 490 490 490 491 491 491 491 492 492 493 493 493 494 494 494 495 495 495 495 495 496 496 496 496 496 496 497 497 497 498 498 498 498 498 499 500 500 500 501 501 501 501 502 502 502 502 502 502 503 503 503 504 505 505 505 505 505 506 506 6792 7187 7358 7358 7447 7447 7447 7537 7537 7537 7630 7630 7630 7630 7630 7726 7726 7726 7630 7630 7630 7630 7537 7447 7447 7447 7447 7447 7447 7358 7358 7358 7358 7271 7271 7271 7187 7104 7104 7023 7023 6945 6867 6867 6792 6718 6718 6646 6575 6575 6575 6575 6575 6506 6506 6506 6506 6506 6506 6575 6646 6646 6718 6718 6792 6945 6945 7023 7187 7187 7271 7447 7447 7447 7537 7537 7537 7537 7447 7447 7358 7271 7271 7271 7271 7187 7104 7104 7104 7023 7023 6945 6945 6945 6945 6945 6945 6945 6945 6945 6945 6945 6945 6945 6945 6945 6945 6945 6867 6867 6867 6867 6867 6792 6792 6792 6792 6792 6718 6718 6718 6718 6718 6718 6718 6718 6718 6718 6718 6718 6646 6646 6646 6646 6646 6575 6575 6575 6575 6646 6646 6646 6718 6718 6867 6945 6945 7630 8584 8584 9811 0 13436 13436 15452 15452 17659 19314 19314 19938 20602 20602 20602 20602 20602 20602 20602 20602 20602 20602 20602 21313 21313 22074 22891 22891 22891 23772 23772 23772 23772 22891 22891 22891 20602 20602 19314 19314 18729 18178 18178 17659 17168 17168 17168 16704 16704 16704 16704 16704 15848 15848 15452 14716 14716 14047 14047 13436 13150 13150 13150 13150 13436 13436 14047 14716 14716 15848 15848 16704 18178 18178 18729 19938 19938 20602 20602 19938 18729 18729 18178 18178 16704 15848 15848 14716 14047 14047 13150 13150 12361 11886 11886 11446 11238 11238 11037 11037 10843 10656 10656 10656 10476 10476 10301 10301 10132 9811 9811 9509 9509 0 8467 8467 8027 7726 7726 7358 7104 7104 7023 7023 6945 6945 0 0 0 0 0 0 0 0 0 0 0 0 0 0 0 0 0 0 0 0 0 0 0 0 0 0 0 0 0 0 0 0 0 0 0 0 0 0 0 0 0 0 0 0 0 0 0 0 0 0 0 0 0 0 0 0 0 0 0 0 0 0 0 0 0 0 0 0 0 0 0 0 0 0 0 0 0 0 0 0 0 0 0 0 0 0 0 0 0 0 0 0 0 0 0 0 0 0 0 0 0 0 0 0 0 0 0 0 0 0 0 0 0 0 0 0 0 0 0 0 0 0 0 0 0 0 0 0 0 0 0 0 0 0 0 0 0 0 0 0 0 0 0 0 0 0 0 0 0 0 0 0 0 0 0 0 0 0 0 0 0 0 0 0 0 0 0 0 0 0 0 0 0 0 0 0 0 0 0 0 0 0 0 0 0 0 0 0 0 0 0 0 0 0 0 0 0 0 0 0 0 0 0 0 0 0 0 0 0 0 0 208 208 208 208 208 208 208 208 208 208 208 208 208 208 208 209 209 209
470 471 471 471 471 471 472 472 472 473 473 473 473 473 473 473 473 473 474 474 474 475 475 475 475 475 476 477 477 477 477 477 477 477 477 477 477 477 478 478 478 478 478 479 479 479 479 479 479 480 480 480 480 480 480 480 480 481 481 481 482 482 482 482 483 484 484 485 486 486 487 487 487 488 489 489 489 489 489 490 490 491 491 491 491 492 492 493 493 493 494 494 494 495 495 495 495 495 496 496 496 496 496 496 497 497 497 498 498 498 498 498 499 500 500 500 501 501 501 501 502 502 502 502 502 502 503 503 503 504 505 505 505 505 505 506 506 6792 7187 7358 7358 7447 7447 7447 7537 7537 7537 7630 7630 7630 7630 7630 7726 7726 7726 7630 7630 7630 7630 7537 7447 7447 7447 7447 7447 7447 7358 7358 7358 7358 7271 7271 7271 7187 7104 7104 7023 7023 6945 6867 6867 6792 6718 6718 6646 6575 6575 6575 6575 6575 6506 6506 6506 6506 6506 6506 6575 6646 6646 6718 6718 6792 6945 6945 7023 7187 7187 7271 7447 7447 7447 7537 7537 7537 7537 7447 7447 7358 7271 7271 7271 7271 7187 7104 7104 7104 7023 7023 6945 6945 6945 6945 6945 6945 6945 6945 6945 6867 6867 6867 6867 6867 6867 6867 6867 6867 6867 6867 6792 6792 6792 6792 6792 6718 6718 6718 6718 6718 6718 6718 6718 6718 6718 6718 6718 6718 6646 6646 6646 6575 6575 6575 6506 6506 6506 6575 6575 6575 6646 6718 6718 6792 6867 6867 7630 8705 8705 9969 0 13436 13436 15452 15452 17168 19314 19314 19314 20602 20602 20602 20602 20602 20602 20602 20602 20602 20602 20602 21313 21313 22074 22891 22891 22891 22891 22891 22891 22891 22074 22074 21313 19314 19314 18178 18178 17168 16704 16704 16265 15848 15848 15452 15452 15452 15075 15075 15075 14716 14716 14047 13436 13436 13150 13150 12876 12614 12614 12614 12614 12876 12876 13436 14047 14047 15075 15075 16265 17168 17168 18178 19314 19314 19938 19938 19314 18729 18729 17659 17659 16265 15452 15452 14374 13735 13735 12876 12876 12119 11662 11662 11238 11037 11037 10843 10843 10656 10476 10476 10301 10132 10132 9969 9969 9969 9811 9811 9509 9509 0 8467 8467 8027 7726 7726 7358 7104 7104 7023 7023 6945 6945 0 0 0 0 0 0 0 0 0 0 0 0 0 0 0 0 0 0 0 0 0 0 0 0 0 0 0 0 0 0 0 0 0 0 0 0 0 0 0 0 0 0 0 0 0 0 0 0 0 0 0 0 0 0 0 0 0 0 0 0 0 0 0 0 0 0 0 0 0 0 0 0 0 0 0 0 0 0 0 0 0 0 0 0 0 0 0 0 0 0 0 0 0 0 0 0 0 0 0 0 0 0 0 0 0 0 0 0 0 0 0 0 0 0 0 0 0 0 0 0 0 0 0 0 0 0 0 0 0 0 0 0 0 0 0 0 0 0 0 0 0 0 0 0 0 0 0 0 0 0 0 0 0 0 0 0 0 0 0 0 0 0 0 0 0 0 0 0 0 0 0 0 0 0 0 0 0 0 0 0 0 0 0 0 0 0 0 0 0 0 0 0 0 0 0 0 0 0 0 0 0 0 0 0 0 0 0 0 0 0 0 0 0 208 208 208 208 208 208 208 208 208 208 208 208 208 209 209 209
471 471 471 471 471 471 472 473 473 473 473 473 473 473 473 473 473 474 474 474 474 475 475 475 476 476 477 477 477 477 477 477 478 478 478 478 478 478 478 478 478 478 479 479 479 479 480 480 480 481 481 481 481 481 481 481 481 481 481 482 482 482 482 482 483 484 484 485 486 486 486 487 487 488 488 488 489 489 489 490 490 491 491 491 492 492 492 493 494 494 494 495 495 495 495 495 496 496 496 496 496 496 497 497 497 497 498 498 498 498 498 498 499 500 500 500 501 501 502 502 502 502 502 502 503 503 503 504 504 504 505 505 505 505 505 506 506 6792 7187 7358 7358 7358 7447 7447 7447 7537 7537 7537 7537 7630 7630 7630 7726 7726 7726 7630 7630 7630 7630 7537 7447 7447 7447 7447 7447 7447 7358 7358 7358 7358 7271 7187 7187 7023 6945 6945 6792 6792 6718 6575 6575 6506 6372 6372 6307 6307 6243 6243 6243 6243 6243 6243 6243 6243 6243 6243 6307 6307 6372 6506 6506 6646 6792 6792 6945 7104 7104 7271 7447 7447 7447 7447 7537 7537 7447 7447 7447 7358 7271 7271 7187 7187 7104 7104 7104 7023 7023 7023 6945 6945 6945 6945 6945 6945 6945 6945 6945 6867 6867 6867 6867 6867 6867 6867 6867 6867 6867 6867 6792 6792 6792 6792 6792 6718 6718 6718 6718 6718 6718 6718 6718 6718 6718 6718 6718 6718 6646 6646 6646 6575 6575 6575 6506 6506 6506 6575 6575 6575 6646 6718 6718 6792 6867 6867 7630 8705 8705 10132 0 13436 13436 15452 15452 17168 19314 19314 19314 20602 20602 20602 20602 20602 20602 20602 20602 20602 20602 20602 21313 21313 22074 22891 22891 22891 22891 22891 22891 22891 22074 22074 21313 19314 19314 18178 18178 17168 16704 16704 16265 15848 15848 15452 15452 15452 15075 15075 15075 14716 14716 14047 13436 13436 13150 13150 12876 12614 12614 12614 12614 12876 12876 13436 14047 14047 15075 15075 16265 17168 17168 18178 19314 19314 19938 19938 19314 18729 18729 17659 17659 16265 15452 15452 14374 13735 13735 12876 12876 12119 11662 11662 11238 11037 11037 10843 10843 10656 10476 10476 10132 9811 9811 9811 9969 9969 0 0 0 0 0 0 0 0 0 0 0 0 0 0 0 0 0 0 0 0 0 0 0 0 0 0 0 0 0 0 0 0 0 0 0 0 0 0 0 0 0 0 0 0 0 0 0 0 0 0 0 0 0 0 0 0 0 0 0 0 0 0 0 0 0 0 0 0 0 0 0 0 0 0 0 0 0 0 0 0 0 0 0 0 0 0 0 0 0 0 0 0 0 0 0 0 0 0 0 0 0 0 0 0 0 0 0 0 0 0 0 0 0 0 0 0 0 0 0 0 0 0 0 0 0 0 0 0 0 0 0 0 0 0 0 0 0 0 0 0 0 0 0 0 0 0 0 0 0 0 0 0 0 0 0 0 0 0 0 0 0 0 0 0 0 0 0 0 0 0 0 0 0 0 0 0 0 0 0 0 0 0 0 0 0 0 0 0 0 0 0 0 0 0 0 0 0 0 0 0 0 0 0 0 0 0 0 0 0 0 0 0 0 0 0 0 0 0 0 0 0 0 0 0 0 0 0 0 0 0 208 208 208 208 208 208 208 208 208 208 208 208 208 208 208 208
471 471 471 471 471 471 472 473 473 473 473 473 473 473 473 473 473 474 474 474 474 475 475 476 476 476 477 477 477 478 478 478 478 478 478 478 478 478 479 479 479 479 479 479 479 480 480 480 481 481 481 481 481 482 482 482 482 482 482 482 483 483 483 484 484 484 484 485 486 486 486 487 487 488 488 488 489 489 489 490 490 491 491 491 492 492 492 493 494 494 495 495 495 496 496 496 496 496 497 497 497 497 497 497 498 498 498 498 498 498 499 499 499 500 500 500 501 501 502 502 502 502 502 503 503 503 503 504 504 504 505 505 506 506 506 506 506 7187 7187 7358 7358 7358 7447 7447 7447 7537 7537 7537 7537 7537 7630 7630 7630 7630 7630 7726 7726 7630 7630 7537 7537 7537 7447 7447 7447 7358 7358 7358 7271 7271 7187 7104 7104 6945 6792 6792 6646 6646 6506 6372 6372 6243 6119 6119 6059 6059 6001 5943 5943 5943 5943 5943 5943 5943 5943 6001 6059 6059 6181 6307 6307 6438 6646 6646 6867 7023 7023 7187 7358 7358 7447 7447 7537 7537 7447 7358 7358 7358 7271 7271 7187 7187 7104 7023 7023 7023 7023 7023 6945 6945 6945 6945 6945 6945 6867 6867 6867 6867 6867 6867 6867 6867 6867 6867 6867 6867 6867 6792 6792 6792 6792 6792 6718 6718 6718 6718 6718 6718 6718 6646 6646 6646 6646 6646 6646 6646 6646 6575 6575 6575 6506 6506 6506 6506 6506 6506 6506 6506 6575 6646 6646 6792 6867 6867 7630 8705 8705 10132 0 13436 13436 15452 15452 17168 19314 19314 19314 20602 20602 20602 20602 20602 20602 20602 20602 20602 20602 20602 21313 21313 22074 22891 22891 22891 22891 22074 22074 21313 20602 20602 19938 18178 18178 17168 17168 15848 15452 15452 15075 14716 14716 14374 14374 14047 14047 14047 13735 13436 13436 13150 13150 12614 12361 12361 12119 11886 11886 11886 11886 12119 12119 12614 12614 13436 14374 14374 15452 16265 16265 17659 18729 18729 19314 19314 19314 18178 18178 17168 17168 15848 15075 15075 14047 13735 13735 12361 12361 11886 11446 11446 11037 10843 10843 10476 10476 10301 10301 10301 10132 9811 9811 9811 0 0 0 0 0 0 0 0 0 0 0 0 0 0 0 0 0 0 0 0 0 0 0 0 0 0 0 0 0 0 0 0 0 0 0 0 0 0 0 0 0 0 0 0 0 0 0 0 0 0 0 0 0 0 0 0 0 0 0 0 0 0 0 0 0 0 0 0 0 0 0 0 0 0 0 0 0 0 0 0 0 0 0 0 0 0 0 0 0 0 0 0 0 0 0 0 0 0 0 0 0 0 0 0 0 0 0 0 0 0 0 0 0 0 0 0 0 0 0 0 0 0 0 0 0 0 0 0 0 0 0 0 0 0 0 0 0 0 0 0 0 0 0 0 0 0 0 0 0 0 0 0 0 0 0 0 0 0 0 0 0 0 0 0 0 0 0 0 0 0 0 0 0 0 0 0 0 0 0 0 0 0 0 0 0 0 0 0 0 0 0 0 0 0 0 0 0 0 0 0 0 0 0 0 0 0 0 0 0 0 0 0 0 0 0 0 0 0 0 0 0 0 0 0 0 0 0 0 0 0 0 0 0 208 208 208 208 208 208 208 208 208 208 208 208 208 208 208
471 471 472 472 472 472 473 473 473 473 473 473 473 473 473 474 474 474 475 475 475 475 475 476 476 476 477 477 477 478 478 478 478 478 478 478 478 478 479 479 479 479 479 479 479 480 480 480 481 481 481 481 481 482 482 482 482 482 482 482 483 483 483 484 484 484 484 485 486 486 486 487 487 487 488 488 489 489 489 490 490 490 491 491 492 492 492 493 494 494 495 495 495 496 496 496 496 496 497 497 497 497 497 497 498 498 498 498 498 498 499 499 499 500 500 500 501 501 502 502 502 502 502 503 503 503 503 504 504 504 505 505 506 506 506 506 506 507 7187 7358 7358 7358 7447 7447 7447 7537 7537 7537 7537 7537 7630 7630 7630 7630 7630 7726 7726 7630 7630 7537 7537 7537 7447 7447 7447 7358 7358 7358 7271 7271 7187 7104 7104 6945 6792 6792 6646 6646 6506 6372 6372 6243 6119 6119 6059 6059 6001 5943 5943 5943 5943 5943 5943 5943 5943 6001 6059 6059 6181 6307 6307 6438 6646 6646 6867 7023 7023 7187 7358 7358 7447 7447 7537 7537 7447 7358 7358 7358 7271 7271 7187 7187 7104 7023 7023 7023 7023 7023 6945 6945 6945 6945 6945 6945 6867 6867 6867 6867 6867 6867 6867 6867 6867 6867 6867 6867 6867 6792 6792 6792 6792 6792 6718 6718 6718 6718 6718 6718 6718 6646 6646 6646 6646 6646 6646 6646 6646 6575 6575 6575 6506 6506 6506 6506 6506 6372 6372 6372 6438 6646 6646 6867 7023 7023 0 0 10656 10656 0 13735 13735 15452 15452 17168 18729 18729 19314 20602 20602 20602 21313 21313 21313 21313 21313 21313 21313 21313 21313 21313 22074 22074 22074 22074 22074 21313 21313 20602 19938 19938 18729 17168 17168 15848 15848 14716 14374 14374 13735 13436 13436 13150 13150 12876 12876 12876 12876 12614 12614 12361 12361 11886 11662 11662 11446 11238 11238 11238 11446 11662 11662 12119 12119 12614 13436 13436 14716 15848 15848 16704 18178 18178 18729 19314 18729 17659 17659 16704 16704 15452 14374 14374 13436 13436 0 12119 12119 11446 11238 11238 10656 10656 10476 10301 10301 10132 9969 9969 9969 9811 9811 9811 0 0 0 0 0 0 0 0 0 0 0 0 0 0 0 0 0 0 0 0 0 0 0 0 0 0 0 0 0 0 0 0 0 0 0 0 0 0 0 0 0 0 0 0 0 0 0 0 0 0 0 0 0 0 0 0 0 0 0 0 0 0 0 0 0 0 0 0 0 0 0 0 0 0 0 0 0 0 0 0 0 0 0 0 0 0 0 0 0 0 0 0 0 0 0 0 0 0 0 0 0 0 0 0 0 0 0 0 0 0 0 0 0 0 0 0 0 0 0 0 0 0 0 0 0 0 0 0 0 0 0 0 0 0 0 0 0 0 0 0 0 0 0 0 0 0 0 0 0 0 0 0 0 0 0 0 0 0 0 0 0 0 0 0 0 0 0 0 0 0 0 0 0 0 0 0 0 0 0 0 0 0 0 0 0 0 0 0 0 0 0 0 0 0 0 0 0 0 0 0 0 0 0 0 0 0 0 0 0 0 0 0 0 0 0 0 0 0 0 0 0 0 0 0 0 0 0 0 0 0 0 0 0 208 208 208 208 208 208 208 208 208 208 208 208 208 208 208
471 472 472 472 472 472 473 473 473 474 474 474 474 474 474 474 474 475 475 475 475 476 476 476 477 477 477 478 478 478 478 478 478 478 479 479 479 479 479 479 479 479 480 480 480 481 481 481 481 482 482 482 482 482 483 483 483 483 483 483 483 483 483 484 484 484 484 485 486 486 486 487 487 487 488 488 489 489 489 489 489 490 491 491 492 492 492 494 494 494 495 496 496 496 496 497 497 497 498 498 498 498 498 498 498 498 498 498 498 499 499 499 499 500 500 500 501 501 502 502 502 502 502 503 503 503 503 504 504 505 505 505 506 506 506 507 507 507 7187 7358 7358 7358 7358 7358 7447 7447 7447 7537 7537 7537 7537 7537 7630 7630 7630 7630 7726 7630 7630 7537 7537 7537 7447 7447 7447 7358 7358 7358 7271 7271 7104 7023 7023 6867 6718 6718 6506 6506 6372 6181 6181 6059 5943 5943 5831 5831 5776 5723 5723 5723 5723 5723 5723 5723 5723 5776 5886 5886 6001 6181 6181 6307 6506 6506 6792 7023 7023 7187 7358 7358 7447 7447 7537 7537 7447 7358 7358 7358 7271 7271 7187 7187 7104 7023 7023 7023 6945 6945 6945 6945 6945 6867 6867 6867 6867 6867 6867 6867 6867 6867 6867 6867 6867 6867 6867 6792 6792 6792 6792 6792 6718 6718 6718 6718 6718 6718 6718 6718 6718 6646 6646 6646 6646 6646 6646 6646 6646 6575 6575 6575 6438 6438 6372 6372 6372 6372 6372 6372 6438 0 0 0 0 0 0 0 10656 10656 0 14047 14047 15452 15452 17168 18729 18729 19314 20602 20602 20602 21313 21313 21313 21313 21313 21313 21313 21313 21313 21313 22074 22074 22074 22074 22074 21313 21313 20602 19938 19938 18729 17168 17168 15848 15848 14716 14374 14374 13735 13436 13436 13150 13150 12876 12876 12876 12876 12614 12614 12361 12361 11886 11662 11662 11446 11238 11238 11238 11446 11662 11662 12119 12119 12614 13436 13436 14716 15848 15848 16704 18178 18178 18729 19314 18729 17659 17659 16704 16704 15452 14374 14374 13436 13436 0 12119 12119 11446 11238 11238 10656 10656 10476 10301 10301 10132 9969 9969 9969 0 0 0 0 0 0 0 0 0 0 0 0 0 0 0 0 0 0 0 0 0 0 0 0 0 0 0 0 0 0 0 0 0 0 0 0 0 0 0 0 0 0 0 0 0 0 0 0 0 0 0 0 0 0 0 0 0 0 0 0 0 0 0 0 0 0 0 0 0 0 0 0 0 0 0 0 0 0 0 0 0 0 0 0 0 0 0 0 0 0 0 0 0 0 0 0 0 0 0 0 0 0 0 0 0 0 0 0 0 0 0 0 0 0 0 0 0 0 0 0 0 0 0 0 0 0 0 0 0 0 0 0 0 0 0 0 0 0 0 0 0 0 0 0 0 0 0 0 0 0 0 0 0 0 0 0 0 0 0 0 0 0 0 0 0 0 0 0 0 0 0 0 0 0 0 0 0 0 0 0 0 0 0 0 0 0 0 0 0 0 0 0 0 0 0 0 0 0 0 0 0 0 0 0 0 0 0 0 0 0 0 0 0 0 0 0 0 0 0 0 0 0 0 0 0 0 0 0 0 0 0 0 0 0 0 0 0 0 208 208 208 208 208 208 208 208 208 208 208 208 208
471 472 472 472 472 472 473 473 473 474 474 474 474 474 474 474 474 475 475 475 475 476 476 476 477 477 477 478 478 478 478 478 478 478 479 479 479 479 479 479 479 479 480 480 480 481 481 481 481 482 482 482 482 482 483 483 483 483 483 483 484 484 484 484 484 485 485 485 486 486 486 487 487 487 488 488 489 489 489 489 489 491 491 491 492 493 493 494 495 495 496 496 496 497 498 498 498 498 498 499 498 498 499 499 499 499 499 499 499 499 499 499 500 500 500 501 501 501 502 502 502 502 502 503 503 503 504 504 504 505 505 505 506 506 506 507 507 507 7358 7358 7358 7358 7358 7358 7447 7447 7447 7537 7537 7537 7537 7537 7630 7630 7630 7630 7726 7630 7630 7630 7537 7537 7537 7447 7447 7358 7358 7358 7271 7271 7104 7023 7023 6867 6646 6646 6438 6438 6243 6059 6059 5943 5943 5776 5670 5670 5568 5518 5518 5518 5518 5518 5518 5518 5518 5568 5670 5670 5831 6001 6001 6243 6438 6438 6718 6945 6945 7187 7447 7447 7537 7537 7537 7537 7447 7358 7358 7271 7187 7187 7104 7104 7023 7023 7023 6945 6945 6945 6945 6867 6867 6867 6867 6867 6867 6867 6867 6867 6867 6867 6867 6792 6792 6792 6792 6792 6792 6792 6718 6718 6718 6718 6718 6718 6718 6718 6718 6718 6718 6646 6646 6646 6646 6575 6575 6575 6506 6438 6438 6372 6372 6307 6307 6307 6307 6307 6372 6372 6372 6438 6438 0 0 0 0 0 10656 10656 0 14047 14047 15452 15452 17168 18729 18729 19314 20602 20602 20602 21313 21313 21313 21313 21313 21313 21313 21313 21313 21313 22074 22074 22074 22074 22074 21313 21313 19938 19938 19938 18178 17168 16704 15452 15452 14374 13735 13735 13150 13150 12614 12361 12361 12119 12119 12119 11886 11662 11662 11662 11662 11446 11238 11238 11037 10843 10843 10843 10843 10843 11238 11662 11662 12119 12876 12876 14047 15075 15075 16265 17168 17168 18178 18178 17659 17168 17168 16265 16265 15075 14047 14047 13150 13150 13150 11886 11886 11238 10843 10843 10476 10476 10301 10132 10132 9811 9657 9657 9657 0 0 0 0 0 0 0 0 0 0 0 0 0 0 0 0 0 0 0 0 0 0 0 0 0 0 0 0 0 0 0 0 0 0 0 0 0 0 0 0 0 0 0 0 0 0 0 0 0 0 0 0 0 0 0 0 0 0 0 0 0 0 0 0 0 0 0 0 0 0 0 0 0 0 0 0 0 0 0 0 0 0 0 0 0 0 0 0 0 0 0 0 0 0 0 0 0 0 0 0 0 0 0 0 0 0 0 0 0 0 0 0 0 0 0 0 0 0 0 0 0 0 0 0 0 0 0 0 0 0 0 0 0 0 0 0 0 0 0 0 0 0 0 0 0 0 0 0 0 0 0 0 0 0 0 0 0 0 0 0 0 0 0 0 0 0 0 0 0 0 0 0 0 0 0 0 0 0 0 0 0 0 0 0 0 0 0 0 0 0 0 0 0 0 0 0 0 0 0 0 0 0 0 0 0 0 0 0 0 0 0 0 0 0 0 0 0 0 0 0 0 0 0 0 0 0 0 0 0 0 0 0 0 0 0 0 0 0 208 208 208 208 0 0 0 0 208 208 208 208 208
472 472 472 472 473 473 473 474 474 474 474 474 474 475 475 475 475 475 476 476 476 477 477 477 477 477 478 478 478 479 479 479 479 479 479 479 479 479 479 479 479 479 480 481 481 481 481 481 482 482 482 482 482 483 484 484 484 484 484 484 484 484 484 484 484 485 485 485 486 486 486 486 486 487 488 488 488 488 489 489 489 491 491 491 492 493 493 494 495 495 496 496 496 497 498 498 498 498 498 499 498 498 499 499 499 499 499 499 499 499 499 499 500 500 500 501 501 501 502 502 502 502 502 503 503 503 504 504 504 505 505 505 506 506 506 507 507 507 7187 7271 7271 7358 7358 7358 7447 7447 7447 7447 7447 7447 7537 7537 7630 7630 7630 7630 7726 7630 7630 7630 7630 7630 7537 7537 7537 7447 7358 7358 7271 7271 7104 7023 7023 6867 6646 6646 6438 6438 6243 6059 6059 5943 5943 5776 5670 5670 5568 5518 5518 5518 5518 5518 5518 5518 5518 5568 5670 5670 5831 6001 6001 6243 6438 6438 6718 6945 6945 7187 7447 7447 7537 7537 7537 7537 7537 7447 7447 7271 7187 7187 7104 7104 7023 7023 7023 6945 6945 6945 6945 6867 6867 6867 6867 6867 6867 6867 6867 6867 6867 6867 6867 6792 6792 6792 6792 6792 6792 6792 6718 6718 6718 6718 6718 6718 6718 6718 6718 6718 6718 6646 6646 6646 6646 6575 6575 6575 6506 6438 6438 6372 6372 6307 6307 6307 6307 6307 6372 6372 6372 6438 6438 0 0 0 0 0 0 0 0 14047 14047 15848 15848 17168 18729 18729 19314 20602 20602 20602 21313 21313 21313 21313 21313 21313 21313 21313 21313 21313 21313 21313 21313 21313 21313 20602 20602 19938 18729 18729 17659 17659 16265 15075 15075 14047 13150 13150 12614 12614 12119 11886 11886 11446 11446 11446 11238 11238 11238 11037 11037 10843 10843 10843 10656 10656 10656 10656 10843 10843 11037 11446 11446 11886 12614 12614 13436 14374 14374 15452 16704 16704 17168 17659 17168 17168 16265 15452 15452 14374 13436 13436 12614 12614 12119 11446 11446 10843 10476 10476 10132 10132 9969 9811 9811 9657 9509 9509 9509 0 0 0 0 0 0 0 0 0 0 0 0 0 0 0 0 0 0 0 0 0 0 0 0 0 0 0 0 0 0 0 0 0 0 0 0 0 0 0 0 0 0 0 0 0 0 0 0 0 0 0 0 0 0 0 0 0 0 0 0 0 0 0 0 0 0 0 0 0 0 0 0 0 0 0 0 0 0 0 0 0 0 0 0 0 0 0 0 0 0 0 0 0 0 0 0 0 0 0 0 0 0 0 0 0 0 0 0 0 0 0 0 0 0 0 0 0 0 0 0 0 0 0 0 0 0 0 0 0 0 0 0 0 0 0 0 0 0 0 0 0 0 0 0 0 0 0 0 0 0 0 0 0 0 0 0 0 0 0 0 0 0 0 0 0 0 0 0 0 0 0 0 0 0 0 0 0 0 0 0 0 0 0 0 0 0 0 0 0 0 0 0 0 0 0 0 0 0 0 0 0 0 0 0 0 0 0 0 0 0 0 0 0 0 0 0 0 0 0 0 0 0 0 0 0 0 0 0 0 0 0 0 0 0 0 0 0 0 207 207 207 207 207 207 0 0 208 208 208 208 208
472 473 473 473 473 473 474 474 474 474 475 475 475 475 475 475 475 476 476 476 477 477 477 477 478 478 478 479 479 479 479 479 479 479 479 479 479 479 479 479 480 480 480 481 481 481 481 481 482 482 482 483 484 484 484 484 484 485 485 485 485 485 485 485 485 485 485 486 486 486 486 486 486 487 488 488 488 488 489 490 490 491 492 492 492 494 494 495 496 496 496 497 497 498 498 498 499 499 499 500 499 499 500 499 499 500 500 500 500 500 500 500 500 500 500 501 501 501 502 502 502 503 503 503 503 503 504 504 504 505 505 505 506 506 506 507 507 507 6945 7187 7187 7358 7358 7358 7447 7447 7447 7447 7447 7447 7537 7537 7537 7630 7630 7630 7726 7630 7630 7630 7630 7630 7537 7537 7537 7447 7358 7358 7271 7271 7104 7023 7023 6867 6646 6646 6438 6438 6243 6001 6001 5831 5831 5670 5518 5518 5422 5374 5374 5328 5328 5328 5328 5374 5374 5422 5518 5518 5670 5886 5886 6119 6372 6372 6646 6945 6945 7187 7447 7447 7537 7537 7537 7537 7447 7358 7358 7271 7187 7187 7104 7104 7023 6945 6945 6945 6867 6867 6867 6867 6867 6867 6867 6867 6867 6867 6867 6867 6867 6792 6792 6792 6792 6792 6792 6792 6792 6718 6718 6718 6718 6718 6718 6718 6718 6718 6718 6718 6718 6646 6646 6646 6646 6575 6575 6575 6506 6438 6438 6372 6372 6307 6307 6307 6307 6307 6372 6372 6372 6438 6438 0 0 0 0 0 0 0 0 14047 14047 15848 15848 17168 18729 18729 19314 20602 20602 20602 21313 21313 21313 21313 21313 21313 21313 21313 21313 21313 21313 21313 21313 21313 21313 20602 20602 19938 18729 18729 17659 17659 16265 15075 15075 14047 13150 13150 12614 12614 12119 11886 11886 11446 11446 11446 11238 11238 11238 11037 11037 10843 10843 10843 10656 10656 10656 10656 10843 10843 11037 11446 11446 11886 12614 12614 13436 14374 14374 15452 16704 16704 17168 17659 17168 17168 16265 15452 15452 14374 13436 13436 12614 12614 12119 11446 11446 10843 10476 10476 10132 10132 9969 9811 9811 9657 9509 9509 9509 0 0 0 0 0 0 0 0 0 0 0 0 0 0 0 0 0 0 0 0 0 0 0 0 0 0 0 0 0 0 0 0 0 0 0 0 0 0 0 0 0 0 0 0 0 0 0 0 0 0 0 0 0 0 0 0 0 0 0 0 0 0 0 0 0 0 0 0 0 0 0 0 0 0 0 0 0 0 0 0 0 0 0 0 0 0 0 0 0 0 0 0 0 0 0 0 0 0 0 0 0 0 0 0 0 0 0 0 0 0 0 0 0 0 0 0 0 0 0 0 0 0 0 0 0 0 0 0 0 0 0 0 0 0 0 0 0 0 0 0 0 0 0 0 0 0 0 0 0 0 0 0 0 0 0 0 0 0 0 0 0 0 0 0 0 0 0 0 0 0 0 0 0 0 0 0 0 0 0 0 0 0 0 0 0 0 0 0 0 0 0 0 0 0 0 0 0 0 0 0 0 0 0 0 0 0 0 0 0 0 0 0 0 0 0 0 0 0 0 0 0 0 0 0 0 0 0 0 0 0 0 0 0 0 0 0 0 0 207 207 207 207 207 207 207 207 207 207 208 208 208
472 473 473 473 473 473 474 474 474 474 475 475 475 475 475 475 475 476 476 476 477 477 477 477 478 478 478 479 479 479 479 479 479 479 479 479 479 479 479 479 480 480 480 481 481 481 481 481 482 482 482 483 484 484 484 484 484 485 485 485 485 485 485 485 485 485 485 486 486 486 486 486 486 487 488 488 488 488 489 490 490 491 492 492 492 494 494 495 496 496 496 497 497 498 498 498 500 500 500 500 500 500 500 500 500 500 500 500 500 500 500 500 500 501 501 501 502 502 502 502 502 503 503 503 503 503 504 504 504 505 506 506 507 507 507 507 507 508 6945 7187 7187 7358 7358 7358 7447 7447 7447 7447 7447 7447 7537 7537 7537 7630 7630 7630 7726 7726 7726 7726 7630 7630 7630 7537 7537 7537 7447 7447 7271 7271 7187 7023 7023 6867 6646 6646 6438 6438 6243 6001 6001 5831 5831 5670 5518 5518 5422 5374 5374 5328 5328 5328 5328 5374 5374 5422 5518 5518 5670 5886 5886 6059 6307 6307 6646 6945 6945 7271 7447 7447 7630 7630 7537 7537 7447 7358 7358 7271 7104 7104 7023 7023 6945 6945 6945 6867 6867 6867 6867 6867 6867 6867 6867 6867 6867 6867 6867 6792 6792 6792 6792 6792 6792 6792 6718 6718 6718 6718 6718 6718 6718 6718 6718 6718 6718 6718 6718 6718 6718 6646 6646 6646 6646 6646 6575 6575 6575 0 0 6372 6372 6372 0 0 0 6372 6372 6372 6372 6438 6438 0 0 0 0 0 11037 11037 12614 12614 14374 15848 15848 17168 18729 18729 19314 19938 19938 20602 21313 21313 21313 20602 20602 20602 20602 20602 21313 21313 21313 21313 21313 21313 21313 20602 20602 19314 18729 18729 17659 17659 16265 15075 15075 14047 13150 13150 12614 12614 12119 11662 11662 11446 11238 11238 11037 11037 11037 11037 11037 10843 10656 10656 10656 10656 10656 10656 10656 10656 10843 11238 11238 11886 12361 12361 13436 14047 14047 15075 15848 15848 16704 16704 16265 16265 15452 14716 14716 13735 12876 12876 12119 12119 11662 11037 11037 10476 10132 10132 9657 9657 9657 9509 9509 9365 9225 9225 9225 0 0 0 0 0 0 0 0 0 0 0 0 0 0 0 0 0 0 0 0 0 0 0 0 0 0 0 0 0 0 0 0 0 0 0 0 0 0 0 0 0 0 0 0 0 0 0 0 0 0 0 0 0 0 0 0 0 0 0 0 0 0 0 0 0 0 0 0 0 0 0 0 0 0 0 0 0 0 0 0 0 0 0 0 0 0 0 0 0 0 0 0 0 0 0 0 0 0 0 0 0 0 0 0 0 0 0 0 0 0 0 0 0 0 0 0 0 0 0 0 0 0 0 0 0 0 0 0 0 0 0 0 0 0 0 0 0 0 0 0 0 0 0 0 0 0 0 0 0 0 0 0 0 0 0 0 0 0 0 0 0 0 0 0 0 0 0 0 0 0 0 0 0 0 0 0 0 0 0 0 0 0 0 0 0 0 0 0 0 0 0 0 0 0 0 0 0 0 0 0 0 0 0 0 0 0 0 0 0 0 0 0 0 0 0 0 0 0 0 0 0 0 0 0 0 0 0 0 0 0 0 0 0 0 0 0 0 0 207 207 207 207 207 207 207 207 207 207 0 0 0
472 473 473 473 474 474 474 474 474 475 475 475 475 476 476 476 477 477 477 477 477 477 477 478 478 478 478 479 479 479 479 479 479 479 479 479 479 480 480 480 480 480 480 481 481 481 482 482 482 483 483 484 484 484 485 485 485 485 485 485 486 485 485 486 486 486 486 486 486 486 486 487 487 487 488 488 489 489 489 490 490 491 492 492 493 494 494 495 496 496 497 498 498 498 499 499 500 500 500 500 500 500 500 500 500 500 500 500 500 500 500 500 500 501 501 501 502 502 502 502 502 502 502 503 503 503 504 504 504 505 506 506 507 507 507 507 507 508 6792 7104 7104 7358 7358 7358 7447 7447 7447 7447 7447 7447 7537 7537 7537 7630 7630 7630 7726 7726 7726 7726 7630 7630 7630 7537 7537 7537 7447 7447 7271 7271 7187 7023 7023 6867 6646 6646 6438 6438 6243 6001 6001 5776 5776 5619 5470 5470 5328 5283 5283 5238 5238 5238 5238 5238 5238 5283 5422 5422 5619 5831 5831 6059 6307 6307 6646 6945 6945 7271 7447 7447 7630 7630 7537 7537 7447 7358 7358 7271 7104 7104 7023 7023 6945 6945 6945 6867 6867 6867 6867 6867 6867 6867 6867 6867 6867 6867 6867 6792 6792 6792 6792 6792 6792 6792 6718 6718 6718 6718 6718 6718 6718 6718 6718 6718 6718 6718 6718 6718 6718 6718 6718 6718 6718 6718 0 0 0 0 0 0 0 0 0 0 0 0 0 0 6575 6575 6575 0 0 0 0 0 11037 11037 12614 12614 14374 16265 16265 17168 18729 18729 19314 19938 19938 20602 21313 21313 21313 20602 20602 20602 20602 20602 21313 21313 21313 21313 21313 21313 21313 20602 20602 19314 18729 18729 17659 17659 16704 15075 15075 14047 13436 13436 12614 12614 12119 11662 11662 11446 11238 11238 11037 11037 11037 11037 11037 10843 10656 10656 10656 10656 10656 10656 10656 10656 10843 11238 11238 11662 12361 12361 12876 13735 13735 14374 15075 15075 15848 15848 15452 15452 14716 14047 14047 13150 12361 12361 11886 11886 11238 10656 10656 10301 9811 9811 9365 9365 9225 9089 9089 8957 8829 8829 8829 0 0 0 0 0 0 0 0 0 0 0 0 0 0 0 0 0 0 0 0 0 0 0 0 0 0 0 0 0 0 0 0 0 0 0 0 0 0 0 0 0 0 0 0 0 0 0 0 0 0 0 0 0 0 0 0 0 0 0 0 0 0 0 0 0 0 0 0 0 0 0 0 0 0 0 0 0 0 0 0 0 0 0 0 0 0 0 0 0 0 0 0 0 0 0 0 0 0 0 0 0 0 0 0 0 0 0 0 0 0 0 0 0 0 0 0 0 0 0 0 0 0 0 0 0 0 0 0 0 0 0 0 0 0 0 0 0 0 0 0 0 0 0 0 0 0 0 0 0 0 0 0 0 0 0 0 0 0 0 0 0 0 0 0 0 0 0 0 0 0 0 0 0 0 0 0 0 0 0 0 0 0 0 0 0 0 0 0 0 0 0 0 0 0 0 0 0 0 0 0 0 0 0 0 0 0 0 0 0 0 0 0 0 0 0 0 0 0 0 0 0 0 0 0 0 0 0 0 0 0 0 0 0 0 0 0 0 0 207 207 207 207 207 207 207 207 207 207 207 207 207
473 473 474 474 474 474 474 475 475 475 475 475 476 476 476 477 477 477 477 477 478 478 478 478 478 478 479 479 479 479 479 479 479 479 480 480 480 480 480 480 480 480 481 481 481 481 482 482 482 483 483 484 484 484 485 485 485 486 486 486 486 486 486 486 486 486 486 486 486 486 486 487 487 487 488 488 489 490 490 491 491 492 493 493 494 495 495 496 497 497 498 499 499 499 500 500 500 500 501 501 501 501 501 501 501 501 501 501 501 501 501 500 500 501 501 501 502 502 502 502 502 502 502 503 503 503 504 504 504 505 506 506 507 507 507 507 507 508 6575 7023 7023 7447 7447 7447 7447 7447 7447 7447 7447 7447 7447 7447 7537 7537 7537 7630 7726 7726 7726 7726 7726 7726 7726 7630 7630 7537 7447 7447 7358 7358 7187 7023 7023 6867 6646 6646 6438 6438 6243 6001 6001 5776 5776 5619 5470 5470 5328 5238 5238 5151 5151 5151 5151 5194 5194 5238 5374 5374 5518 5723 5723 6001 6307 6307 6575 6945 6945 7271 7447 7447 7630 7630 7537 7537 7447 7358 7358 7271 7104 7104 7023 7023 6945 6867 6867 6867 6867 6867 6867 6867 6867 6867 6867 6867 6867 6867 6867 6792 6792 6792 6792 6792 6718 6718 6718 6718 6718 6718 6718 6718 6718 6718 6718 6718 6718 6718 6718 6718 6718 6718 6718 6718 6718 6718 6792 6792 6718 6718 6718 6646 6575 6575 6575 6575 6506 6506 6506 6506 6575 6575 6575 7187 7726 7726 8584 0 10843 10843 12361 12361 14047 15452 15452 16704 18178 18178 18729 19938 19938 20602 20602 20602 21313 20602 20602 20602 20602 20602 20602 20602 20602 20602 20602 20602 20602 20602 20602 19314 18729 18729 17659 17659 16265 15075 15075 14047 13436 13436 12614 12614 12119 11662 11662 11238 11037 11037 11037 11037 10843 10843 10843 10656 10656 10656 10656 10656 10656 10656 10843 10843 11037 11238 11238 11662 12361 12361 12876 13735 13735 14374 15075 15075 15848 15848 15452 15452 14716 14047 14047 13150 12361 12361 11886 11886 11238 10656 10656 10301 9811 9811 9365 9365 9225 9089 9089 8957 8829 8829 8829 0 0 0 0 0 0 0 0 0 0 0 0 0 0 0 0 0 0 0 0 0 0 0 0 0 0 0 0 0 0 0 0 0 0 0 0 0 0 0 0 0 0 0 0 0 0 0 0 0 0 0 0 0 0 0 0 0 0 0 0 0 0 0 0 0 0 0 0 0 0 0 0 0 0 0 0 0 0 0 0 0 0 0 0 0 0 0 0 0 0 0 0 0 0 0 0 0 0 0 0 0 0 0 0 0 0 0 0 0 0 0 0 0 0 0 0 0 0 0 0 0 0 0 0 0 0 0 0 0 0 0 0 0 0 0 0 0 0 0 0 0 0 0 0 0 0 0 0 0 0 0 0 0 0 0 0 0 0 0 0 0 0 0 0 0 0 0 0 0 0 0 0 0 0 0 0 0 0 0 0 0 0 0 0 0 0 0 0 0 0 0 0 0 0 0 0 0 0 0 0 0 0 0 0 0 0 0 0 0 0 0 0 0 0 0 0 0 0 0 0 0 0 0 0 0 0 0 0 0 0 0 0 0 0 0 0 0 0 0 0 0 0 0 0 0 0 0 207 207 207 207
473 473 474 474 474 474 474 475 475 475 475 475 476 476 476 477 477 477 477 477 478 478 478 478 478 478 479 479 479 479 479 479 479 479 480 480 480 480 480 480 480 480 481 481 481 481 482 482 482 483 483 484 484 484 485 485 485 486 486 486 486 486 486 486 486 486 486 486 486 486 486 487 487 487 488 488 489 490 490 491 491 492 493 493 494 495 495 496 497 497 498 499 499 499 500 500 500 500 501 501 501 501 501 501 501 501 501 501 501 501 501 500 500 501 501 501 501 501 502 502 502 502 502 503 503 503 504 504 504 505 506 506 507 507 507 508 508 508 6575 7023 7023 7447 7447 7447 7447 7447 7447 7447 7447 7447 7447 7447 7537 7537 7537 7630 7726 7726 7726 7726 7824 7824 7726 7726 7726 7630 7537 7537 7447 7447 7271 7104 7104 6945 6718 6718 6506 6506 6243 6001 6001 5776 5776 5619 5470 5470 5328 5238 5238 5151 5151 5151 5151 5194 5194 5238 5374 5374 5518 5723 5723 6001 6307 6307 6575 6945 6945 7271 7537 7537 7726 7726 7630 7630 7537 7358 7358 7271 7104 7104 7023 7023 6945 6867 6867 6867 6867 6867 6867 6867 6867 6867 6867 6867 6867 6867 6867 6792 6792 6792 6792 6792 6718 6718 6718 6718 6718 6718 6718 6718 6718 6718 6718 6718 6718 6718 6718 6718 6718 6792 6792 6792 6792 6792 6792 6792 6718 6718 6718 6646 6575 6575 6575 6575 6506 6506 6506 6506 6575 6718 6718 7187 7726 7726 8467 9365 9365 10656 11886 11886 13436 15452 15452 16704 17659 17659 18729 19938 19938 20602 20602 20602 20602 20602 20602 20602 20602 20602 20602 20602 20602 20602 20602 20602 20602 20602 20602 19314 18729 18729 17659 17659 16265 15452 15452 14374 13436 13436 12614 12614 12119 11662 11662 11238 11037 11037 11037 11037 10843 10843 10843 10656 10656 10656 10656 10656 10656 10656 10843 10843 11037 11238 11238 11662 12119 12119 12614 13150 13150 13735 14374 14374 14716 15075 14716 14716 14374 13436 13436 12876 12119 12119 11446 11446 10843 10476 10476 9969 9657 9657 9225 9225 9089 8957 8957 8705 8705 8829 8829 0 0 0 0 0 0 0 0 0 0 0 0 0 0 0 0 0 0 0 0 0 0 0 0 0 0 0 0 0 0 0 0 0 0 0 0 0 0 0 0 0 0 0 0 0 0 0 0 0 0 0 0 0 0 0 0 0 0 0 0 0 0 0 0 0 0 0 0 0 0 0 0 0 0 0 0 0 0 0 0 0 0 0 0 0 0 0 0 0 0 0 0 0 0 0 0 0 0 0 0 0 0 0 0 0 0 0 0 0 0 0 0 0 0 0 0 0 0 0 0 0 0 0 0 0 0 0 0 0 0 0 0 0 0 0 0 0 0 0 0 0 0 0 0 0 0 0 0 0 0 0 0 0 0 0 0 0 0 0 0 0 0 0 0 0 0 0 0 0 0 0 0 0 0 0 0 0 0 0 0 0 0 0 0 0 0 0 0 0 0 0 0 0 0 0 0 0 0 0 0 0 0 0 0 0 0 0 0 0 0 0 0 0 0 0 0 0 0 0 0 0 0 0 0 0 0 0 0 0 0 0 0 0 0 0 0 0 0 0 0 0 0 0 0 0 0 0 207 207 207 207
473 474 474 474 474 474 475 475 475 475 475 475 476 476 476 477 477 477 477 477 478 478 478 478 479 479 479 479 479 479 479 479 480 480 480 480 480 480 481 481 481 481 481 481 481 482 482 482 483 483 483 484 484 484 485 485 486 486 486 486 486 486 486 486 486 486 486 487 487 487 487 487 487 488 489 489 489 491 491 492 492 492 494 494 494 496 496 497 498 498 499 499 499 500 501 501 501 501 502 502 502 502 502 502 502 502 502 502 502 501 501 501 501 501 501 501 501 501 502 502 502 502 502 502 503 503 503 504 504 505 506 506 507 507 507 508 508 508 6506 7023 7023 7447 7447 7447 7447 7447 7447 7447 7447 7447 7447 7447 7537 7537 7537 7630 7726 7726 7726 7726 7824 7824 7726 7726 7726 7630 7537 7537 7447 7447 7271 7104 7104 6945 6718 6718 6506 6506 6243 6001 6001 5776 5776 5619 5470 5470 5328 5238 5238 5151 5151 5151 5151 5151 5151 5238 5328 5328 5470 5723 5723 6001 6307 6307 6575 6945 6945 7271 7537 7537 7726 7726 7630 7630 7537 7358 7358 7271 7104 7104 7023 7023 6945 6867 6867 6867 6867 6867 6867 6867 6867 6867 6867 6867 6867 6867 6867 6792 6792 6792 6792 6792 6718 6718 6718 6718 6718 6718 6718 6718 6718 6718 6718 6718 6792 6792 6792 6792 6792 6792 6867 6867 6867 6867 6792 6792 6792 6718 6718 6718 6646 6646 6575 6575 6575 6575 6575 6575 6646 6718 6718 7187 7726 7726 8467 9365 9365 10656 11886 11886 13436 15452 15452 16704 17659 17659 18729 19938 19938 20602 20602 20602 20602 20602 20602 20602 20602 20602 20602 20602 20602 20602 20602 20602 20602 20602 20602 19938 19314 19314 18178 18178 16704 15452 15452 14374 13735 13735 12876 12876 12361 11662 11662 11446 11238 11238 11037 11037 10843 10843 10843 10843 10843 10843 10843 10843 10843 10843 10843 10843 11037 11238 11238 11662 12119 12119 12614 13150 13150 13735 14374 14374 14716 15075 14716 14716 14374 13436 13436 12876 12119 12119 11446 11446 10843 10476 10476 9969 9657 9657 9225 9225 9089 8829 8829 8584 8584 0 0 0 0 0 0 0 0 0 0 0 0 0 0 0 0 0 0 0 0 0 0 0 0 0 0 0 0 0 0 0 0 0 0 0 0 0 0 0 0 0 0 0 0 0 0 0 0 0 0 0 0 0 0 0 0 0 0 0 0 0 0 0 0 0 0 0 0 0 0 0 0 0 0 0 0 0 0 0 0 0 0 0 0 0 0 0 0 0 0 0 0 0 0 0 0 0 0 0 0 0 0 0 0 0 0 0 0 0 0 0 0 0 0 0 0 0 0 0 0 0 0 0 0 0 0 0 0 0 0 0 0 0 0 0 0 0 0 0 0 0 0 0 0 0 0 0 0 0 0 0 0 0 0 0 0 0 0 0 0 0 0 0 0 0 0 0 0 0 0 0 0 0 0 0 0 0 0 0 0 0 0 0 0 0 0 0 0 0 0 0 0 0 0 0 0 0 0 0 0 0 0 0 0 0 0 0 0 0 0 0 0 0 0 0 0 0 0 0 0 0 0 0 0 0 0 0 0 0 0 0 0 0 0 0 0 0 0 0 0 0 0 206 206 206 206 206 206 206 206 206 206 206
473 474 474 474 474 474 475 475 475 475 475 475 476 476 476 477 477 477 477 477 478 478 478 478 479 479 479 479 479 479 479 480 480 480 480 480 480 481 481 481 481 481 481 482 482 482 483 483 483 484 484 484 485 485 486 486 486 486 486 486 486 486 487 487 487 487 487 487 487 487 487 488 488 489 489 489 491 492 492 492 492 494 494 494 496 497 497 498 498 498 499 500 500 501 501 501 502 502 502 502 502 503 503 503 503 503 502 502 502 502 502 501 501 501 501 501 502 502 502 502 502 502 502 502 503 503 503 504 504 505 506 506 507 507 508 508 508 509 6307 6945 6945 7537 7537 7537 7447 7447 7447 7447 7447 7447 7447 7447 7447 7537 7537 7630 7726 7726 7726 7726 7824 7824 7824 7726 7726 7726 7630 7630 7537 7537 7358 7187 7187 7023 6792 6792 6575 6575 6307 6059 6059 5831 5831 5619 5470 5470 5328 5238 5238 5151 5151 5151 5151 5151 5151 5238 5328 5328 5470 5670 5670 5943 6243 6243 6575 6945 6945 7271 7537 7537 7726 7726 7630 7630 7537 7447 7447 7271 7104 7104 7023 7023 6945 6867 6867 6867 6867 6867 6867 6867 6867 6867 6867 6867 6867 6867 6867 6792 6792 6792 6792 6792 6718 6718 6718 6718 6718 6718 6718 6718 6718 6718 6718 6718 6792 6792 6792 6792 6792 6792 6867 6867 6867 6867 6792 6792 6792 6718 6718 6718 6646 6646 6575 6575 6575 6575 6575 6575 6646 6718 6718 7187 7726 7726 8352 9365 9365 10476 11886 11886 13436 15075 15075 16704 17659 17659 18729 19938 19938 20602 20602 20602 20602 20602 20602 20602 20602 20602 20602 20602 20602 20602 20602 20602 20602 20602 20602 19938 19314 19314 18178 18178 16704 15452 15452 14374 13735 13735 12876 12876 12361 11662 11662 11446 11238 11238 11037 11037 10843 10843 10843 10843 10843 10843 10843 10843 10843 10843 10843 10843 11037 11238 11238 11662 11886 11886 12361 12876 12876 13436 14047 14047 14374 14374 14047 14047 13735 13150 13150 12614 12119 12119 11446 11446 10843 10301 10301 9811 9657 9509 9089 9089 8957 8829 8829 8584 8584 0 0 0 0 0 0 0 0 0 0 0 0 0 0 0 0 0 0 0 0 0 0 0 0 0 0 0 0 0 0 0 0 0 0 0 0 0 0 0 0 0 0 0 0 0 0 0 0 0 0 0 0 0 0 0 0 0 0 0 0 0 0 0 0 0 0 0 0 0 0 0 0 0 0 0 0 0 0 0 0 0 0 0 0 0 0 0 0 0 0 0 0 0 0 0 0 0 0 0 0 0 0 0 0 0 0 0 0 0 0 0 0 0 0 0 0 0 0 0 0 0 0 0 0 0 0 0 0 0 0 0 0 0 0 0 0 0 0 0 0 0 0 0 0 0 0 0 0 0 0 0 0 0 0 0 0 0 0 0 0 0 0 0 0 0 0 0 0 0 0 0 0 0 0 0 0 0 0 0 0 0 0 0 0 0 0 0 0 0 0 0 0 0 0 0 0 0 0 0 0 0 0 0 0 0 0 0 0 0 0 0 0 0 0 0 0 0 0 0 0 0 0 0 0 0 0 0 0 0 0 0 0 0 0 0 0 0 0 0 0 0 0 206 206 206 206 206 206 206 206 206 206 206
474 474 474 474 474 474 475 475 475 475 476 476 476 477 477 477 478 478 478 478 478 478 478 479 479 479 479 479 479 479 479 480 480 480 480 480 480 481 481 481 481 481 481 482 482 482 483 483 483 484 484 484 485 485 486 486 486 486 486 486 486 486 487 487 487 487 487 487 487 487 487 488 488 489 489 489 491 492 492 492 492 494 494 494 496 497 497 498 498 498 499 500 500 501 501 501 502 502 502 502 502 503 503 503 503 503 502 502 502 502 502 501 501 501 501 501 502 502 502 502 502 502 502 502 503 503 503 504 504 505 506 506 507 507 508 508 508 509 6307 6945 6945 7537 7537 7537 7537 7537 7447 7447 7447 7447 7447 7447 7447 7537 7537 7630 7726 7726 7726 7726 7824 7824 7824 7824 7824 7726 7630 7630 7630 7630 7447 7271 7271 7104 6867 6867 6646 6646 6372 6119 6119 5886 5886 5670 5518 5518 5374 5238 5238 5151 5151 5151 5151 5151 5151 5238 5328 5328 5470 5670 5670 5943 6243 6243 6575 6945 6945 7271 7630 7630 7824 7824 7726 7726 7630 7447 7447 7271 7187 7187 7023 7023 6945 6867 6867 6867 6867 6867 6867 6867 6867 6867 6867 6867 6867 6867 6867 6792 6792 6792 6792 6792 6792 6792 6718 6718 6718 6718 6718 6718 6718 6718 6718 6792 6792 6792 6792 6867 6867 6945 6945 6945 6945 6867 6867 6867 6867 6792 6792 6792 6718 6718 6646 6646 6646 6646 6646 6646 6718 6792 6792 7187 7726 7726 8352 9225 9225 10132 11446 11446 13150 14716 14716 16704 17659 17659 18729 19314 19314 19938 20602 20602 20602 20602 20602 20602 20602 20602 20602 20602 20602 20602 20602 20602 20602 20602 20602 20602 19938 19938 18729 18729 17659 16704 16704 15452 14374 14374 13436 13436 12614 12119 12119 11662 11446 11446 11238 11238 11037 11037 11037 11037 10843 10843 10843 10843 10843 10843 11037 11037 11037 11446 11446 11662 11886 11886 12361 12876 12876 13150 13735 13735 13735 13735 13735 13735 13436 13150 13150 12614 11886 11886 11446 11446 10843 10301 10301 9811 9811 9509 9089 9089 8829 8584 8584 8584 8584 0 0 0 0 0 0 0 0 0 0 0 0 0 0 0 0 0 0 0 0 0 0 0 0 0 0 0 0 0 0 0 0 0 0 0 0 0 0 0 0 0 0 0 0 0 0 0 0 0 0 0 0 0 0 0 0 0 0 0 0 0 0 0 0 0 0 0 0 0 0 0 0 0 0 0 0 0 0 0 0 0 0 0 0 0 0 0 0 0 0 0 0 0 0 0 0 0 0 0 0 0 0 0 0 0 0 0 0 0 0 0 0 0 0 0 0 0 0 0 0 0 0 0 0 0 0 0 0 0 0 0 0 0 0 0 0 0 0 0 0 0 0 0 0 0 0 0 0 0 0 0 0 0 0 0 0 0 0 0 0 0 0 0 0 0 0 0 0 0 0 0 0 0 0 0 0 0 0 0 0 0 0 0 0 0 0 0 0 0 0 0 0 0 0 0 0 0 0 0 0 0 0 0 0 0 0 0 0 0 0 0 0 0 0 0 0 0 0 0 0 0 0 0 0 0 0 0 0 0 0 0 0 0 0 0 0 0 0 0 0 0 0 206 206 206 206 206 206 206 206 206 206 206
474 474 474 474 475 475 475 475 475 476 476 476 476 477 477 477 478 478 478 478 478 479 479 479 479 479 479 479 479 479 479 480 480 480 480 481 481 481 481 481 481 481 482 482 482 483 484 484 484 484 484 485 485 485 486 486 486 486 486 487 487 487 487 487 487 487 487 488 488 488 488 489 489 489 491 491 491 492 492 494 494 494 496 496 496 497 497 498 499 499 500 500 500 501 502 502 502 502 503 503 503 503 503 503 503 503 503 503 502 502 502 502 502 502 501 501 501 501 502 502 502 502 502 502 503 503 503 505 505 505 507 507 508 508 508 509 509 510 6307 6945 6945 7537 7537 7537 7537 7537 7447 7447 7447 7447 7447 7447 7447 7447 7447 7537 7630 7630 7726 7726 7824 7824 7824 7824 7824 7726 7630 7630 7630 7630 7447 7271 7271 7104 6867 6867 6646 6646 6372 6119 6119 5886 5886 5670 5518 5518 5374 5238 5238 5151 5151 5151 5151 5151 5151 5238 5283 5283 5422 5619 5619 5886 6243 6243 6575 6945 6945 7271 7630 7630 7824 7824 7726 7726 7630 7447 7447 7271 7187 7187 7023 7023 6945 6867 6867 6867 6867 6867 6867 6867 6867 6867 6867 6867 6867 6867 6867 6792 6792 6792 6792 6792 6792 6792 6718 6718 6718 6718 6718 6718 6718 6718 6718 6792 6792 6792 6792 6867 6867 6945 6945 6945 6945 6867 6867 6867 6867 6792 6792 6792 6718 6718 6718 6718 6646 6646 6718 6718 6792 6867 6867 7187 7726 7726 8352 9225 9225 10132 11446 11446 13150 14716 14716 16704 17659 17659 18729 19314 19314 19938 20602 20602 20602 20602 20602 20602 20602 20602 20602 20602 20602 20602 20602 20602 20602 21313 21313 20602 20602 20602 19314 18729 18729 17659 17659 16265 15075 15075 14374 14374 13436 12614 12614 12119 11662 11662 11238 11238 11238 11238 11238 11037 10843 10843 10843 10843 10843 10843 11037 11037 11238 11446 11446 11662 11886 11886 12361 12876 12876 13150 13735 13735 13735 13735 13735 13735 13436 13150 13150 12614 11886 11886 11446 11446 10843 10301 10301 9811 9811 9509 9089 9089 8829 8584 8584 8584 0 0 0 0 0 0 0 0 0 0 0 0 0 0 0 0 0 0 0 0 0 0 0 0 0 0 0 0 0 0 0 0 0 0 0 0 0 0 0 0 0 0 0 0 0 0 0 0 0 0 0 0 0 0 0 0 0 0 0 0 0 0 0 0 0 0 0 0 0 0 0 0 0 0 0 0 0 0 0 0 0 0 0 0 0 0 0 0 0 0 0 0 0 0 0 0 0 0 0 0 0 0 0 0 0 0 0 0 0 0 0 0 0 0 0 0 0 0 0 0 0 0 0 0 0 0 0 0 0 0 0 0 0 0 0 0 0 0 0 0 0 0 0 0 0 0 0 0 0 0 0 0 0 0 0 0 0 0 0 0 0 0 0 0 0 0 0 0 0 0 0 0 0 0 0 0 0 0 0 0 0 0 0 0 0 0 0 0 0 0 0 0 0 0 0 0 0 0 0 0 0 0 0 0 0 0 0 0 0 0 0 0 0 0 0 0 0 0 0 0 0 0 0 0 0 0 0 0 0 0 0 0 0 0 0 0 0 0 0 0 0 0 0 206 206 206 206 206 206 206 206 206 206 206
474 474 474 474 475 475 475 475 475 476 476 476 476 477 477 477 478 478 478 478 478 479 479 479 479 479 479 479 479 479 479 479 480 480 480 481 481 481 481 481 481 481 482 482 482 483 484 484 484 484 484 485 485 485 486 486 486 486 486 487 487 487 487 488 488 488 488 488 489 489 489 490 490 491 491 491 492 493 493 494 495 495 496 496 497 498 498 499 500 500 500 501 501 501 502 502 502 502 503 503 503 503 503 503 503 0 503 503 502 502 502 502 502 502 501 501 501 501 502 502 502 502 502 502 503 503 503 505 505 505 507 507 508 508 509 510 510 510 6945 6945 6945 7537 7537 7537 7537 7537 7537 7537 7447 7447 7447 7447 7447 7447 7447 7537 7630 7630 7726 7726 7726 7726 7726 7824 7824 7726 7726 7726 7630 7630 7447 7271 7271 7023 6867 6867 6646 6646 6372 6119 6119 5886 5886 5670 5518 5518 5328 5238 5238 5151 5151 5151 5151 5151 5151 5194 5283 5283 5374 5568 5568 5831 6181 6181 6575 6867 6867 7271 7537 7537 7824 7824 7824 7824 7726 7537 7537 7358 7187 7187 7104 7104 6945 6945 6945 6867 6867 6867 6867 6867 6867 6867 6867 6867 6867 6867 6867 6792 6792 6792 6792 6792 6792 6792 6792 6718 6718 6718 6792 6792 6792 6792 6792 6792 6867 6867 6867 6945 6945 6945 6945 6945 6945 6945 6945 6945 6867 6867 6867 6792 6718 6718 6718 6718 6646 6646 6718 6718 6792 6867 6867 7187 7630 7630 8241 9089 9089 9969 11238 11238 12614 14374 14374 16265 17659 17659 18729 19314 19314 19314 19938 19938 19938 19938 19938 19938 19938 19938 19938 19938 20602 20602 20602 20602 20602 21313 21313 20602 20602 20602 19314 18729 18729 17659 17659 16265 15075 15075 14374 14374 13436 12614 12614 12119 11662 11662 11238 11238 11238 11238 11238 11037 10843 10843 10843 10843 10843 10843 11037 11037 11238 11446 11446 11662 11886 11886 12119 12614 12614 12876 13150 13150 13436 13436 13436 13436 13436 12876 12876 12614 11886 11886 11446 11446 10843 10301 10301 9811 9811 9365 8957 8957 8705 8584 8584 8584 0 0 0 0 0 0 0 0 0 0 0 0 0 0 0 0 0 0 0 0 0 0 0 0 0 0 0 0 0 0 0 0 0 0 0 0 0 0 0 0 0 0 0 0 0 0 0 0 0 0 0 0 0 0 0 0 0 0 0 0 0 0 0 0 0 0 0 0 0 0 0 0 0 0 0 0 0 0 0 0 0 0 0 0 0 0 0 0 0 0 0 0 0 0 0 0 0 0 0 0 0 0 0 0 0 0 0 0 0 0 0 0 0 0 0 0 0 0 0 0 0 0 0 0 0 0 0 0 0 0 0 0 0 0 0 0 0 0 0 0 0 0 0 0 0 0 0 0 0 0 0 0 0 0 0 0 0 0 0 0 0 0 0 0 0 0 0 0 0 0 0 0 0 0 0 0 0 0 0 0 0 0 0 0 0 0 0 0 0 0 0 0 0 0 0 0 0 0 0 0 0 0 0 0 0 0 0 0 0 0 0 0 0 0 0 0 0 0 0 0 0 0 0 0 0 0 0 0 0 0 0 0 0 0 0 0 0 0 0 0 0 0 0 206 206 206 206 206 206 206 206 206 206 206
474 474 475 475 475 475 475 475 475 476 476 476 476 477 477 477 478 478 478 478 478 478 478 479 479 479 479 479 479 479 479 479 480 480 480 481 481 481 481 481 482 482 482 483 483 484 484 484 485 485 485 485 486 486 486 486 486 486 486 487 487 487 487 488 488 488 488 488 489 489 489 490 490 491 491 491 492 493 493 494 495 495 496 496 497 498 498 499 500 500 500 501 501 501 502 502 502 502 503 503 503 503 503 503 503 503 503 503 502 502 502 502 502 502 501 501 501 501 502 502 502 502 502 502 503 503 503 505 505 505 507 507 508 508 509 510 510 510 511 511 6945 7537 7537 7537 7537 7537 7537 7537 7447 7447 7447 7447 7447 7447 7447 7537 7630 7630 7630 7630 7726 7726 7726 7824 7824 7726 7726 7726 7630 7630 7447 7271 7271 7023 6867 6867 6646 6646 6372 6119 6119 5886 5886 5670 5518 5518 5328 5238 5238 5151 5151 5151 5151 5151 5151 5194 5283 5283 5374 5568 5568 5831 6181 6181 6867 6867 6867 7271 7537 7537 7824 7824 7824 7824 7726 7537 7537 7358 7187 7187 7104 7104 7023 6945 6945 6867 6867 6867 6867 6867 6867 6867 6867 6867 6867 6867 6867 6867 6867 6792 6792 6792 6792 6792 6792 6718 6718 6718 6792 6792 6792 6792 6792 6867 6867 6867 6945 6945 6945 6945 6945 6945 6945 6945 6945 6945 6867 6867 6867 6792 6718 6718 6718 6718 6718 6718 6718 6718 6792 6867 6867 7187 7630 7630 8241 9089 9089 9969 11238 11238 12614 14374 14374 16265 17659 17659 18729 19314 19314 19314 19938 19938 19938 19938 19938 19938 19938 19314 19314 19314 19938 20602 20602 20602 20602 21313 21313 21313 21313 21313 20602 19938 19938 18178 18178 17659 15848 15848 14716 14374 13735 13150 13150 12361 11886 11886 11446 11446 11238 11238 11238 11037 11037 11037 10843 10843 11037 11037 11037 11037 11238 11446 11446 11662 11886 11886 12119 12361 12361 12614 12876 12876 13150 13150 13150 13150 13150 12876 12876 12361 11886 11886 11446 11446 10843 10301 10301 9811 9811 9365 8957 8957 8705 8467 8467 8467 0 0 0 0 0 0 0 0 0 0 0 0 0 0 0 0 0 0 0 0 0 0 0 0 0 0 0 0 0 0 0 0 0 0 0 0 0 0 0 0 0 0 0 0 0 0 0 0 0 0 0 0 0 0 0 0 0 0 0 0 0 0 0 0 0 0 0 0 0 0 0 0 0 0 0 0 0 0 0 0 0 0 0 0 0 0 0 0 0 0 0 0 0 0 0 0 0 0 0 0 0 0 0 0 0 0 0 0 0 0 0 0 0 0 0 0 0 0 0 0 0 0 0 0 0 0 0 0 0 0 0 0 0 0 0 0 0 0 0 0 0 0 0 0 0 0 0 0 0 0 0 0 0 0 0 0 0 0 0 0 0 0 0 0 0 0 0 0 0 0 0 0 0 0 0 0 0 0 0 0 0 0 0 0 0 0 0 0 0 0 0 0 0 0 0 0 0 0 0 0 0 0 0 0 0 0 0 0 0 0 0 0 0 0 0 0 0 0 0 0 0 0 0 0 0 0 0 0 0 0 0 0 0 0 0 0 0 0 0 0 0 0 0 206 206 206 206 206 206 206 206 206 206 206
474 475 475 475 475 475 475 475 475 476 476 476 476 477 477 477 478 478 478 478 478 478 478 479 479 479 479 479 479 479 479 479 480 480 480 481 481 482 482 482 482 482 483 484 484 484 485 485 485 486 486 486 486 486 486 486 486 487 487 487 487 487 488 488 488 489 489 489 489 489 490 491 491 491 492 492 493 494 494 495 496 496 497 497 498 498 498 499 500 500 500 501 501 502 502 502 502 502 503 503 503 503 504 504 503 503 503 503 503 502 502 502 502 502 502 501 501 501 502 502 502 502 502 502 503 503 504 505 505 506 507 507 509 509 510 510 510 511 511 511 6945 7630 7630 7630 7537 7537 7537 7537 7447 7447 7447 7358 7358 7447 7447 7447 7537 7537 7630 7630 7630 7630 7630 7726 7726 7630 7537 7537 7447 7447 7271 7104 7104 6945 6867 6718 6506 6506 6243 6001 6001 5776 5776 5619 5470 5470 5328 5194 5194 5151 5151 5108 5108 5108 5108 5151 5238 5238 5328 5518 5518 5776 6059 6059 6718 6718 6718 7104 7358 7358 7630 7630 7726 7726 7630 7447 7447 7358 7187 7187 7104 7104 7023 6945 6945 6867 6867 6867 6867 6867 6867 6867 6867 6867 6867 6867 6867 6867 6867 6792 6792 6792 6792 6792 6718 6718 6718 6718 6792 6792 6792 6792 6792 6867 6867 6867 6945 6945 6945 6945 6945 6945 6945 6945 6945 6945 6867 6867 6867 6792 6718 6718 6718 6718 6718 6718 6718 6718 6792 6867 6867 7187 7630 7630 8241 8957 8957 9811 11037 11037 12361 14047 14047 16265 17659 17659 18178 18729 18729 19314 19314 19314 19314 19314 19314 19314 19314 19314 19314 19314 19938 20602 20602 20602 20602 21313 22074 22074 22074 22074 22074 20602 20602 19314 19314 18178 16704 16704 15452 14374 14374 14374 0 12614 11886 11886 11446 11446 11238 11238 11238 11037 11037 11037 10843 10843 11037 11037 11037 11037 11238 11446 11446 11662 11886 11886 12119 12361 12361 12614 12876 12876 13150 13150 13150 13150 13150 12876 12876 12361 11886 11886 11446 11446 10843 10301 10301 9811 9811 9365 8957 8957 8705 8467 8467 8467 0 0 0 0 0 0 0 0 0 0 0 0 0 0 0 0 0 0 0 0 0 0 0 0 0 0 0 0 0 0 0 0 0 0 0 0 0 0 0 0 0 0 0 0 0 0 0 0 0 0 0 0 0 0 0 0 0 0 0 0 0 0 0 0 0 0 0 0 0 0 0 0 0 0 0 0 0 0 0 0 0 0 0 0 0 0 0 0 0 0 0 0 0 0 0 0 0 0 0 0 0 0 0 0 0 0 0 0 0 0 0 0 0 0 0 0 0 0 0 0 0 0 0 0 0 0 0 0 0 0 0 0 0 0 0 0 0 0 0 0 0 0 0 0 0 0 0 0 0 0 0 0 0 0 0 0 0 0 0 0 0 0 0 0 0 0 0 0 0 0 0 0 0 0 0 0 0 0 0 0 0 0 0 0 0 0 0 0 0 0 0 0 0 0 0 0 0 0 0 0 0 0 0 0 0 0 0 0 0 0 0 0 0 0 0 0 0 0 0 0 0 0 0 0 0 0 0 0 0 0 0 0 0 0 0 0 0 0 0 0 0 0 0 206 206 206 206 206 206 206 206 206 206 206
474 475 475 475 475 475 475 475 475 476 476 476 476 477 477 477 478 478 478 478 478 478 478 479 479 479 479 479 479 479 479 479 480 480 480 481 481 482 482 482 482 482 483 484 484 484 485 485 485 486 486 486 486 486 486 486 486 487 487 487 487 487 488 488 488 489 489 489 489 489 490 491 491 491 492 492 493 494 494 495 496 496 497 497 498 498 498 499 499 499 500 500 500 501 502 502 502 502 502 503 503 503 504 504 504 504 503 503 503 503 503 502 502 502 502 502 502 502 502 502 502 502 502 502 503 503 0 0 507 507 508 508 510 510 510 511 511 511 512 512 6945 7630 7630 7630 7630 7630 7537 7537 7447 7447 7447 7358 7358 7447 7447 7447 7537 7537 7630 7630 7630 7630 7630 7726 7726 7630 7537 7537 7447 7447 7271 7104 7104 6945 6945 6718 6506 6506 6243 6001 6001 5776 5776 5619 5470 5470 5328 5194 5194 5151 5151 5108 5108 5108 5108 5151 5238 5238 5328 5422 5422 5670 5670 5943 6718 6718 6718 6792 6792 7104 7358 7358 7447 7447 7358 7271 7271 7271 7187 7187 7023 7023 6945 6945 6945 6945 6867 6867 6867 6867 6867 6867 6867 6867 6867 6867 6867 6792 6792 6792 6792 6718 6718 6718 6718 6718 6718 6718 6718 6792 6792 6792 6792 6867 6945 6945 6945 7023 7023 7023 7023 7023 7023 7023 6945 6945 6945 6867 6867 6867 6792 6792 6792 6792 6792 6792 6792 6792 6792 6945 6945 7104 7447 7447 8027 8705 8705 9811 10656 10656 11886 13436 13436 15452 17168 17168 18178 18729 18729 18729 18729 18729 19314 19314 19314 19314 18729 18729 19314 19314 19314 19938 19938 20602 20602 21313 22074 22074 22074 22074 22074 20602 20602 19314 19314 18178 16704 16704 15452 14374 14374 14374 0 12614 11886 11886 11446 11446 11238 11238 11238 11037 11037 11037 10843 10843 10843 10843 11037 11037 11037 11238 11238 11662 11886 11886 12119 12361 12361 12614 12876 12876 13150 13150 13150 13150 13150 12876 12876 12361 11886 11886 11446 11446 10843 10301 10301 9811 9811 9365 8957 8957 8705 8467 8467 8467 0 0 0 0 0 0 0 0 0 0 0 0 0 0 0 0 0 0 0 0 0 0 0 0 0 0 0 0 0 0 0 0 0 0 0 0 0 0 0 0 0 0 0 0 0 0 0 0 0 0 0 0 0 0 0 0 0 0 0 0 0 0 0 0 0 0 0 0 0 0 0 0 0 0 0 0 0 0 0 0 0 0 0 0 0 0 0 0 0 0 0 0 0 0 0 0 0 0 0 0 0 0 0 0 0 0 0 0 0 0 0 0 0 0 0 0 0 0 0 0 0 0 0 0 0 0 0 0 0 0 0 0 0 0 0 0 0 0 0 0 0 0 0 0 0 0 0 0 0 0 0 0 0 0 0 0 0 0 0 0 0 0 0 0 0 0 0 0 0 0 0 0 0 0 0 0 0 0 0 0 0 0 0 0 0 0 0 0 0 0 0 0 0 0 0 0 0 0 0 0 0 0 0 0 0 0 0 0 0 0 0 0 0 0 0 0 0 0 0 0 0 0 0 0 0 0 0 0 0 0 0 0 0 0 0 0 0 0 0 0 0 0 0 206 206 206 206 206 206 206 206 206 206 206
474 475 475 475 475 475 475 476 476 476 476 476 476 477 477 477 478 478 478 478 478 478 478 479 479 479 479 479 479 479 479 480 480 480 481 481 481 482 483 483 483 484 484 485 485 485 486 486 486 486 486 486 487 487 487 487 487 487 487 487 488 488 488 489 489 489 489 489 490 490 490 491 491 492 493 493 494 495 495 496 496 496 497 497 498 498 498 499 499 499 500 500 500 500 501 501 502 502 502 502 502 503 504 504 504 504 503 503 503 503 503 502 502 502 502 502 502 502 502 502 502 502 502 502 503 503 0 0 507 507 508 508 510 510 510 511 511 511 512 512 6945 7537 7537 7537 7537 7537 7537 7537 7447 7447 7447 7358 7358 7358 7358 7358 7358 7447 7447 7447 7537 7537 7537 7537 7537 7537 7537 7358 7271 7271 7104 6945 6945 6718 6718 6506 6307 6307 6119 5886 5886 5670 5670 5518 5374 5374 5283 5194 5194 5108 5108 5108 5108 5108 5108 5151 5194 5194 5283 5422 5422 5670 5670 5943 0 0 6792 6792 6792 7104 7358 7358 7447 7447 7358 7271 7271 7271 7187 7187 7023 7023 6945 6945 6945 6945 6867 6867 6867 6867 6867 6867 6867 6867 6867 6867 6867 6792 6792 6792 6792 6718 6718 6718 6718 6718 6718 6718 6718 6792 6792 6792 6792 6867 6945 6945 7023 7023 7023 7023 7023 7023 7023 7023 7023 7023 6945 6945 6945 6867 6867 6867 6792 6792 6792 6792 6792 6792 6867 6945 6945 7104 7447 7447 8027 8705 8705 10656 10656 10656 11886 13436 13436 15452 17168 17168 18178 18729 18729 18729 18729 18729 19314 19314 19314 19314 18729 18729 19314 19314 19314 19938 19938 20602 20602 21313 22074 22074 22074 22074 22074 21313 21313 19938 19938 18729 17168 17168 15848 14716 14716 14716 0 12614 12119 12119 11662 11662 11238 11238 11238 11037 11037 11037 10843 10843 10843 10843 11037 11037 11037 11238 11238 11446 11662 11662 11886 12119 12119 12614 12614 12614 12876 12876 13150 13150 12876 12876 12876 12361 11886 11886 11446 11446 10843 10301 10301 9811 9811 9509 9089 9089 8705 8705 0 0 0 0 0 0 0 0 0 0 0 0 0 0 0 0 0 0 0 0 0 0 0 0 0 0 0 0 0 0 0 0 0 0 0 0 0 0 0 0 0 0 0 0 0 0 0 0 0 0 0 0 0 0 0 0 0 0 0 0 0 0 0 0 0 0 0 0 0 0 0 0 0 0 0 0 0 0 0 0 0 0 0 0 0 0 0 0 0 0 0 0 0 0 0 0 0 0 0 0 0 0 0 0 0 0 0 0 0 0 0 0 0 0 0 0 0 0 0 0 0 0 0 0 0 0 0 0 0 0 0 0 0 0 0 0 0 0 0 0 0 0 0 0 0 0 0 0 0 0 0 0 0 0 0 0 0 0 0 0 0 0 0 0 0 0 0 0 0 0 0 0 0 0 0 0 0 0 0 0 0 0 0 0 0 0 0 0 0 0 0 0 0 0 0 0 0 0 0 0 0 0 0 0 0 0 0 0 0 0 0 0 0 0 0 0 0 0 0 0 0 0 0 0 0 0 0 0 0 0 0 0 0 0 0 0 0 0 0 0 0 0 0 206 206 206 206 206 206 206 206 206 206 206 206 206
474 475 475 475 475 475 475 476 476 476 477 477 477 477 477 478 478 478 478 478 478 479 479 479 479 479 480 480 480 480 480 480 481 481 481 482 482 483 484 484 484 485 485 485 485 486 487 487 487 487 487 487 487 487 487 487 487 488 488 488 488 488 489 489 489 489 490 490 491 491 491 492 492 493 494 494 494 496 496 496 497 497 498 498 498 498 498 499 499 499 500 500 500 500 501 501 502 502 502 502 502 503 504 504 504 504 504 504 503 503 503 503 502 502 502 502 502 502 502 502 502 502 502 503 504 504 0 0 0 508 508 508 510 511 511 511 511 511 512 512 7023 7537 7537 7537 7537 7537 7537 7537 7447 7447 7447 7358 7358 7358 7358 7358 7358 7358 7358 7358 7447 7447 7447 7358 7358 7358 7358 7187 7104 7104 6867 6718 6718 6506 6506 6307 6119 6119 5886 5723 5723 5568 5568 5422 5283 5283 5194 5194 5108 5066 5066 5066 5066 5066 5066 5108 5151 5151 5238 5238 5374 5568 5568 5776 6001 6001 6506 6506 6506 6792 7023 7023 7104 7187 7104 7104 7104 7023 7023 7023 6945 6945 6945 6867 6867 6867 6867 6867 6867 6867 6867 6792 6792 6792 6792 6792 6792 6792 6792 6718 6718 6718 6718 6718 6646 6646 6718 6718 6718 6792 6792 6792 6792 6867 6945 6945 6945 7023 7023 7023 7023 7023 7023 7023 7023 7023 6945 6867 6867 6792 6646 6646 6575 6575 6506 6438 6438 6438 6438 6438 6438 6506 6506 6792 7104 7104 7630 8132 8132 8829 9657 9657 10476 12361 17168 17168 18178 18178 18178 18729 18729 17168 17168 17168 18178 18178 18178 18178 18178 18178 18729 18729 19314 19938 19938 19938 22074 22074 22074 22074 22074 21313 21313 19938 19938 18729 17168 17168 15848 14716 14716 14716 0 12614 12119 12119 11662 11662 11238 11238 11238 11037 11037 11037 10843 10843 10843 10843 11037 11037 11037 11238 11238 11446 11662 11662 11886 12119 12119 12614 12614 12614 12876 12876 13150 13150 12876 12876 12876 12361 12361 11886 11446 11446 10843 10301 10301 9969 9969 9509 9225 9225 9225 0 0 0 0 0 0 0 0 0 0 0 0 0 0 0 0 0 0 0 0 0 0 0 0 0 0 0 0 0 0 0 0 0 0 0 0 0 0 0 0 0 0 0 0 0 0 0 0 0 0 0 0 0 0 0 0 0 0 0 0 0 0 0 0 0 0 0 0 0 0 0 0 0 0 0 0 0 0 0 0 0 0 0 0 0 0 0 0 0 0 0 0 0 0 0 0 0 0 0 0 0 0 0 0 0 0 0 0 0 0 0 0 0 0 0 0 0 0 0 0 0 0 0 0 0 0 0 0 0 0 0 0 0 0 0 0 0 0 0 0 0 0 0 0 0 0 0 0 0 0 0 0 0 0 0 0 0 0 0 0 0 0 0 0 0 0 0 0 0 0 0 0 0 0 0 0 0 0 0 0 0 0 0 0 0 0 0 0 0 0 0 0 0 0 0 0 0 0 0 0 0 0 0 0 0 0 0 0 0 0 0 0 0 0 0 0 0 0 0 0 0 0 0 0 0 0 0 0 0 0 0 0 0 0 0 0 0 0 0 0 0 0 0 0 206 206 206 206 206 206 206 206 206 206 206 206 206
474 474 475 475 475 475 475 476 476 476 477 477 477 477 477 478 478 478 478 478 478 479 479 479 479 479 480 480 480 480 480 480 481 481 481 482 482 483 484 484 484 485 485 485 485 486 487 487 487 487 487 487 487 487 487 487 487 488 488 488 488 488 489 489 489 489 490 490 491 491 491 492 492 493 494 494 494 496 496 496 497 497 497 497 498 498 498 498 499 499 499 500 500 500 500 500 501 501 502 502 502 503 503 503 504 504 504 504 503 503 503 503 502 502 502 502 502 502 502 502 502 502 502 503 504 504 0 0 0 508 508 508 510 511 511 511 511 512 512 512 7104 7537 7537 7537 7537 7537 7537 7537 7447 7447 7447 7358 7358 7358 7358 7358 7358 7358 7358 7358 7447 7447 7447 7358 7358 7358 7358 7187 7104 7104 6867 6718 6718 6506 6506 6307 6119 6119 5886 5723 5723 5568 5568 5422 5283 5283 5194 5194 5108 5066 5066 5066 5066 5066 5066 5108 5151 5151 5238 5238 5374 5568 5568 5776 6001 6001 6506 6506 6506 6792 7023 7023 7104 7187 7104 7104 7104 7023 7023 7023 6945 6945 6945 6867 6867 6867 6867 6867 6867 6867 6867 6792 6792 6792 6575 6575 6438 6438 6372 6243 6243 6181 6119 6119 6119 6059 6059 6059 6059 6059 6181 6243 6243 6372 6438 6438 6506 6575 6575 6575 6575 6646 6646 6575 6506 6506 6438 6372 6372 6307 6307 6181 6119 6119 6059 6001 6001 6001 6001 6001 6001 6001 6001 6181 6372 6372 6718 7187 7187 7630 8027 8027 8829 9509 9509 13436 17659 18178 17659 17659 16265 14374 14374 13735 13735 14047 14047 14716 14716 15075 15075 15075 15452 17168 17168 18729 21313 21313 22891 22891 22891 22074 22074 20602 20602 19314 17659 17659 15848 14716 14716 13735 13735 12876 12119 12119 11662 11662 11238 11037 11037 11037 10843 10843 10843 10843 10843 10843 10843 10843 11037 11238 11238 11446 11662 11662 11886 12119 12119 12361 12614 12614 12876 12876 12876 12876 12876 12614 12614 12361 12119 11886 11446 11446 10843 10301 10301 9969 9969 9509 9225 9225 9225 0 0 0 0 0 0 0 0 0 0 0 0 0 0 0 0 0 0 0 0 0 0 0 0 0 0 0 0 0 0 0 0 0 0 0 0 0 0 0 0 0 0 0 0 0 0 0 0 0 0 0 0 0 0 0 0 0 0 0 0 0 0 0 0 0 0 0 0 0 0 0 0 0 0 0 0 0 0 0 0 0 0 0 0 0 0 0 0 0 0 0 0 0 0 0 0 0 0 0 0 0 0 0 0 0 0 0 0 0 0 0 0 0 0 0 0 0 0 0 0 0 0 0 0 0 0 0 0 0 0 0 0 0 0 0 0 0 0 0 0 0 0 0 0 0 0 0 0 0 0 0 0 0 0 0 0 0 0 0 0 0 0 0 0 0 0 0 0 0 0 0 0 0 0 0 0 0 0 0 0 0 0 0 0 0 0 0 0 0 0 0 0 0 0 0 0 0 0 0 0 0 0 0 0 0 0 0 0 0 0 0 0 0 0 0 0 0 0 0 0 0 0 0 0 0 0 0 0 0 0 0 0 0 0 0 0 0 0 0 0 0 0 0 0 206 206 206 206 206 206 206 206 206 206 206 206 206
474 474 475 475 475 475 476 476 476 476 477 477 477 477 477 478 478 478 478 478 479 479 479 479 480 480 480 480 480 481 481 481 482 482 482 483 483 484 484 484 485 486 486 486 486 487 487 487 488 488 488 488 488 488 488 488 488 488 488 488 489 489 489 489 489 490 491 491 491 491 492 492 492 493 494 494 495 496 496 496 497 497 497 497 498 498 498 498 498 498 499 499 499 500 500 500 500 500 501 501 501 502 503 503 503 504 504 504 504 503 503 503 503 503 503 503 503 503 503 503 503 503 503 504 505 505 507 508 508 509 509 509 511 511 511 511 511 512 512 512 7104 7447 7447 7447 7537 7537 7447 7447 7447 7447 7447 7358 7358 7358 7271 7271 7271 7271 7358 7358 7358 7358 7271 7187 7187 7187 7187 7023 6867 6867 6646 6438 6438 6243 6243 6059 5886 5886 5670 5670 5518 5374 5374 5238 5194 5194 5108 5108 5066 4984 4984 4984 4984 4984 4984 5025 5066 5066 5108 5108 5194 5374 5374 5518 5723 5723 5886 6119 6119 6307 6506 6506 6646 6718 6718 6792 6792 6792 6792 6792 6867 6867 6867 6792 6792 6792 6792 6867 6867 6867 6792 6718 6718 6646 6575 6575 6438 6438 6372 6243 6243 6181 6119 6119 6119 6059 6059 6059 6059 6059 6181 6243 6243 6372 6438 6438 6506 6575 6575 6575 6575 6646 6646 6575 6506 6506 6438 6372 6372 6307 6307 6181 6119 6119 6059 6001 6001 6001 6001 6001 6001 6001 6001 6181 6372 6372 6718 7187 7187 7630 8027 8027 8829 9509 9509 13436 17659 18178 17659 17659 16265 14374 14374 13735 13735 14047 14047 14716 14716 15075 15075 15075 15452 17168 17168 18729 21313 21313 22891 22891 22891 22074 22074 20602 20602 19314 17659 17659 16265 16265 14716 13735 13735 12876 12119 12119 11662 11662 11238 11037 11037 11037 10843 10843 10843 10843 10843 10843 10843 10843 11037 11238 11238 11446 11662 11662 11886 12119 12119 12361 12614 12614 12876 12876 12876 12876 12876 12614 12614 12361 12119 12119 11446 11446 11037 10476 10476 10132 10132 9811 9225 9225 9225 0 0 0 0 0 0 0 0 0 0 0 0 0 0 0 0 0 0 0 0 0 0 0 0 0 0 0 0 0 0 7187 7187 7104 7104 6945 6792 6792 6646 6506 6506 6506 0 0 0 0 0 0 0 0 0 0 0 0 0 0 0 0 0 0 0 0 0 0 0 0 0 0 0 0 0 0 0 0 0 0 0 0 0 0 0 0 0 0 0 0 0 0 0 0 0 0 0 0 0 0 0 0 0 0 0 0 0 0 0 0 0 0 0 0 0 0 0 0 0 0 0 0 0 0 0 0 0 0 0 0 0 0 0 0 0 0 0 0 0 0 0 0 0 0 0 0 0 0 0 0 0 0 0 0 0 0 0 0 0 0 0 0 0 0 0 0 0 0 0 0 0 0 0 0 0 0 0 0 0 0 0 0 0 0 0 0 0 0 0 0 0 0 0 0 0 0 0 0 0 0 0 0 0 0 0 0 0 0 0 0 0 0 0 0 0 0 0 0 0 0 0 0 0 0 0 0 0 0 0 0 0 0 0 0 0 0 0 0 0 0 0 0 0 0 0 0 0 0 0 206 206 206 206 206 206 206 206 206 206 206 206 206
474 474 475 475 475 475 476 476 476 476 477 477 477 477 477 478 478 478 478 478 479 479 479 479 480 480 480 481 481 481 481 482 482 482 483 484 484 485 485 485 486 487 487 487 487 488 488 488 489 489 489 489 489 489 489 489 489 489 489 489 489 489 490 490 490 491 491 491 491 491 492 493 493 494 494 494 495 496 496 496 497 497 497 497 498 498 498 498 498 498 499 499 499 500 500 500 500 500 501 501 501 502 503 503 503 504 504 504 504 504 504 504 504 504 504 504 504 504 504 504 504 504 504 505 506 506 507 508 508 509 510 510 511 512 512 512 512 512 512 512 7104 7447 7447 7447 7447 7447 7447 7447 7447 7447 7447 7358 7358 7358 7271 7271 7271 7271 7271 7271 7187 7187 7104 7104 7104 7023 7023 6867 6646 6646 6438 6243 6243 6001 6001 5831 5619 5619 5470 5470 5283 5194 5194 5108 5025 5025 4984 4984 4945 4905 4905 4867 4867 4867 4867 4905 4905 4905 4945 4945 5025 5151 5151 5238 5374 5374 5518 5670 5670 5776 6001 6001 6119 6119 6119 6243 6243 6243 6243 6243 6307 6307 6307 6307 6307 6307 6307 6307 6307 6307 6243 6181 6181 6119 6001 6001 5943 5943 5886 5831 5831 5723 5670 5670 5670 5670 5670 5670 5670 5670 5670 5723 5723 5831 5886 5886 5943 5943 6001 6059 6059 6059 6119 6059 6001 6001 5943 5943 5886 5831 5831 5723 5670 5670 5619 5568 5568 5568 5568 5568 5518 5518 5518 5670 5831 5831 6059 6307 6307 6575 6867 6867 7447 8352 8352 8705 15848 18178 17168 17168 12119 12119 9509 9509 11238 11238 11662 11886 11886 12876 13735 13735 14374 15848 15848 17659 19938 19938 22074 22891 22891 22074 22074 20602 20602 19314 17659 17659 16265 15075 14716 13735 13735 12876 12119 12119 11662 11662 11238 11037 11037 10843 10843 10843 10656 10656 10656 10656 10843 10843 10843 11037 11037 11238 11446 11446 11662 11886 11886 12119 12119 12361 12361 12361 12614 12614 12614 12361 12361 12119 12119 11662 11238 11238 10843 10476 10476 10132 10132 9969 9657 9657 9657 0 0 0 0 0 0 0 0 0 0 0 0 0 0 0 0 0 0 0 0 0 0 0 0 0 0 0 0 0 0 7187 7187 7104 7104 6945 6792 6792 6646 6506 6506 6506 0 0 0 0 0 0 0 0 0 0 0 0 0 0 0 0 0 0 0 0 0 0 0 0 0 0 0 0 0 0 0 0 0 0 0 0 0 0 0 0 0 0 0 0 0 0 0 0 0 0 0 0 0 0 0 0 0 0 0 0 0 0 0 0 0 0 0 0 0 0 0 0 0 0 0 0 0 0 0 0 0 0 0 0 0 0 0 0 0 0 0 0 0 0 0 0 0 0 0 0 0 0 0 0 0 0 0 0 0 0 0 0 0 0 0 0 0 0 0 0 0 0 0 0 0 0 0 0 0 0 0 0 0 0 0 0 0 0 0 0 0 0 0 0 0 0 0 0 0 0 0 0 0 0 0 0 0 0 0 0 0 0 0 0 0 0 0 0 0 0 0 0 0 0 0 0 0 0 0 0 0 0 0 0 0 0 0 0 0 0 0 0 0 0 0 0 0 0 0 0 0 0 0 206 206 206 206 206 206 206 206 206 206 206 206 206
474 475 475 475 475 475 476 476 476 477 477 477 477 478 478 478 478 478 479 479 479 479 479 480 480 480 481 481 481 481 481 482 482 482 483 484 484 485 485 485 486 487 487 487 487 488 488 488 489 489 489 489 489 489 489 489 489 489 489 489 489 489 490 490 490 490 491 491 491 491 492 493 493 494 494 494 495 496 496 496 497 497 497 497 498 498 498 498 498 498 498 498 498 499 499 499 500 500 500 501 501 502 502 502 503 504 504 504 504 504 504 504 504 504 504 504 504 504 504 504 504 504 504 505 506 506 507 508 508 509 510 510 511 512 512 512 512 512 512 512 513 7447 7447 7447 7447 7447 7447 7447 7447 7447 7447 7358 7358 7358 7271 7271 7271 7271 7271 7271 7187 7187 7104 7104 7104 7023 7023 6867 6646 6646 6438 6243 6243 6001 6001 5831 5619 5619 5470 5470 5283 5194 5194 5108 5025 5025 4984 4984 4945 4905 4905 4867 4867 4867 4867 4905 4905 4905 4945 4945 5025 5151 5151 5238 5374 5374 5518 5670 5670 5776 6001 6001 6119 6119 6119 6243 6243 6243 6243 6243 6307 6307 6307 6307 6307 6307 6307 6307 6307 6307 6243 6181 6181 6119 6001 6001 5943 5943 5886 5831 5831 5723 5670 5670 5670 5670 5670 5670 5670 5670 5670 5723 5723 5831 5886 5886 5943 5943 6001 6059 6059 6059 6119 6059 6001 6001 5943 5943 5886 5831 5831 5723 5283 5283 5238 5238 5194 5151 5151 5151 5151 5151 5151 5238 5328 5328 5518 5518 5670 5831 5831 6243 6243 6243 6438 7187 7187 7924 7924 7358 7358 7824 7447 7447 7824 7824 8584 10301 10301 11446 12361 12361 14047 15848 15848 16704 19938 19938 22074 22074 22074 22074 22074 20602 20602 19314 17659 17659 16265 15075 15075 13735 13735 12876 12119 12119 11662 11662 11238 11037 11037 10843 10656 10656 10656 10656 10656 10656 10656 10656 10656 10843 10843 11037 11238 11238 11446 11662 11662 11886 11886 12119 12119 12119 12119 12119 12119 11886 11886 11886 11886 11446 11238 11238 10843 10656 10656 10301 10301 9969 9657 9657 9657 0 0 0 0 0 0 0 0 0 0 0 0 0 0 0 0 0 0 0 0 0 0 0 0 0 0 0 0 0 7271 7104 7104 7023 7023 6867 6718 6718 6575 6438 6438 6243 6243 6243 0 0 0 0 0 0 0 0 0 0 0 0 0 0 0 0 0 0 0 0 0 0 0 0 0 0 0 0 0 0 0 0 0 0 0 0 0 0 0 0 0 0 0 0 0 0 0 0 0 0 0 0 0 0 0 0 0 0 0 0 0 0 0 0 0 0 0 0 0 0 0 0 0 0 0 0 0 0 0 0 0 0 0 0 0 0 0 0 0 0 0 0 0 0 0 0 0 0 0 0 0 0 0 0 0 0 0 0 0 0 0 0 0 0 0 0 0 0 0 0 0 0 0 0 0 0 0 0 0 0 0 0 0 0 0 0 0 0 0 0 0 0 0 0 0 0 0 0 0 0 0 0 0 0 0 0 0 0 0 0 0 0 0 0 0 0 0 0 0 0 0 0 0 0 0 0 0 0 0 0 0 0 0 0 0 0 0 0 0 0 0 0 0 0 0 0 0 0 0 0 0 206 206 206 206 206 206 206 206 206 206 206 206 206
